676,676,663,663,663,663,663,663,663,663,663,663,663,676,676,676,676,676,676,676,676,676,676,690,690,690,690,690,690,690,690,690,705,705,705,705,705,705,705,705,705,705,720,720,720,720,720,720,720,720,720,720,720,720,720,720,720,720,720,720,720,736,736,736,736,736,736,736,736,736,736,736,736,736,736,736,753,753,753,753,753,753,753,753,753,753,753,753,753,771,771,771,771,771,771,771,771,771,771,771,771,771,771,771,771,771,771,771,789,789,789,789,789,789,789,789,789,789,789,789,789,789,789,808,808,808,808,808,808,808,808,808,808,808,808,808,808,828,828,828,828,828,828,828,828,828,828,828,828,828,828,828,850,850,850,850,850,850,850,850,850,850,850,850,850,850,0,0,850,850,850,850,850,850,850,850,850,850,850,850,850,850,850,850,850,850,850,850,0,0,0,0,0,0,0,850,850,850,850,850,850,850,0,0,0,0,0,0,0,0,0,0,0,0,0,0,0,0,0,0,0,0,0,0,0,0,0,0,1143,1143,1143,1143,1143,1143,1143,1143,1143,1143,1143,1143,1143,1143,1143,1143,1143,1143,1143,1143,1143,1143,1143,1143,1143,0,0,0,0,0,0,0,1069,1069,1104,1104,1104,1104,1104,1104,1143,1143,1143,1143,1143,1143,1143,1143,1143,1143,1143,1143,1143,1143,1143,1143,1143,1143,1143,1143,1143,1143,1143,1143,1143,1143,1143,1143,1143,1183,1183,1183,1183,1143,1143,1143,1143,1183,1183,1183,1183,828,828,828,808,808,808,808,808,808,808,808,808,808,808,808,808,808,828,828,828,828,808,850,828,0,0,0,0,0,0,0,0,0,0,0,0,0,0,0,0,0,0,0,0,0,0,0,0,0,0,0,0,0,0,0,0,0,0,0,0,0,0,0,0,0,0,0,0,0,0,0,0,0,0,0,0,0,0,0,0,0,0,0,0,0,0,0,1744,0,0,0,0,0,0,0,0,1656,1656,1744,1744,0,0,0,0,0,0,0,0,0,0,0,0,1840,0,1840,0,0,0,0,0,0,0,0,0,0,0,0,0,0,0,0,1840,0,0,0,0,0,0,0,0,0,0,0,0,0,0,0,0,0,0,0,0,0,0,0,0,0,0,0,0,0,0,0,0,0,0,0,0,0,0,0,0,0,0,0,0,0,4140,4732,5520,6624,6624,6624,6624,16560,0,0,0,0,6624,3011,3011,2760,2760,2760,2760,2760,0,0,0,0,0,0,0,0,0,0,0,0,0,0,2548,2548,2548,2366,2366,2548,2548,2548,2548,2548,2548,2548,2548,2548,2548,2548,2548,2548,2548,2548,2548,2548,2366,2548,2548,2548,2548,2548,2366,2366,2366,2366,2366,2548,2548,2548,2548,2548,2548,2366,2366,2366,2366,2366,2366,2366,2366,2548,2548,2366,2366,2366,2366,2366,2366,2366,2366,2366,2366,2366,2366,2366,2366,2366,2366,2366,2366,2366,2366,2366,2366,2366,2366,2366,2366,2366,2366,2366,2208,2208,2208,2208,2208,2208,2208,2208,2208,2208,2208,2208,2208,2208,2208,2070,2208,2208,2070,2208,2208,2208,2208,2208,2208,2208,2366,2760,3312,0,3011,2208,2208,2208,2208,2208,2208,2208,2208,2208,2208,2208
676,663,663,663,663,663,663,663,663,663,663,663,676,676,676,676,676,676,676,676,676,676,676,690,690,690,690,690,690,690,690,690,705,705,705,705,705,705,705,705,705,705,720,720,720,720,720,720,720,720,720,720,720,720,720,720,720,720,720,720,720,736,736,736,736,736,736,736,736,736,736,736,736,736,736,736,753,753,753,753,753,753,753,753,753,753,753,753,753,771,771,771,771,771,771,771,771,771,771,771,771,771,771,771,771,771,771,771,789,789,789,789,789,789,789,789,789,789,789,789,789,789,789,808,808,808,808,808,808,808,808,808,808,808,808,808,808,828,828,828,828,828,828,828,828,828,828,828,828,828,828,828,850,850,850,850,850,850,850,850,850,850,850,850,0,0,0,0,0,850,850,850,850,850,850,850,850,850,850,850,850,850,850,850,850,850,850,850,0,0,0,0,0,0,0,850,850,850,850,850,850,850,0,0,0,0,0,0,0,0,0,0,0,0,0,0,0,0,0,0,0,0,0,0,0,0,0,0,1143,1143,1143,1143,1143,1143,1143,1143,1143,1143,1143,1143,1143,1143,1143,1143,1143,1143,1143,1143,1143,1143,1143,1143,1143,0,0,0,0,0,0,1143,1069,1104,1104,1104,1104,1104,1104,1104,1143,1143,1143,1143,1143,1143,1143,1143,1143,1143,1143,1143,1143,1143,1143,1143,1143,1143,1143,1143,1143,1143,1143,1143,1143,1143,1143,1143,1143,1183,1183,1183,1183,1143,1143,1143,1143,1183,1183,1183,1183,828,828,828,808,808,808,808,808,808,808,808,808,808,808,808,808,828,828,828,828,828,828,828,828,828,0,0,0,0,0,0,0,0,0,0,0,0,0,0,0,0,0,0,0,0,0,0,0,0,0,0,0,0,0,0,0,0,0,0,0,0,0,0,0,0,0,0,0,0,0,0,0,0,0,0,0,0,0,0,0,0,0,0,0,0,0,0,1744,0,0,0,0,0,0,0,0,0,1744,0,0,0,0,0,0,0,0,0,0,0,0,0,0,0,0,0,0,0,0,0,0,0,0,0,0,0,0,0,0,0,0,0,1840,1949,1949,0,0,0,0,0,0,0,0,0,0,0,0,0,0,0,0,0,0,0,0,0,0,0,0,0,0,0,0,0,0,0,0,0,0,0,0,0,0,0,0,0,0,0,16560,16560,5520,6624,6624,6624,6624,16560,33119,33119,16560,33119,6624,3011,3011,2760,2760,2760,0,0,0,0,0,0,0,0,0,0,0,0,0,0,0,0,2548,2548,2548,2366,2366,2548,2548,2548,2548,2548,2548,2548,2548,2548,2548,2548,2548,2548,2548,2548,2548,2548,2366,2548,2548,2548,2548,2548,2548,2366,2366,2366,2366,2548,2548,2548,2548,2548,2548,2548,2366,2366,2366,2366,2366,2366,2366,2366,2366,2366,2366,2366,2366,2366,2366,2366,2366,2366,2366,2366,2366,2366,2366,2366,2366,2366,2366,2366,2208,2208,2208,2208,2208,2366,2366,2366,2366,2208,2208,2208,2208,2208,2208,2208,2208,2208,2208,2208,2208,2208,2208,2208,2208,2070,2208,2208,2208,2208,2208,2208,2208,2208,2208,2208,2366,2760,3011,3312,3011,3011,2208,2208,2208,2208,2208,2208,2208,2208,2208,2208
663,663,663,663,663,663,663,676,676,676,676,676,676,676,676,676,676,676,676,676,676,676,690,690,690,690,690,690,690,690,690,690,705,705,705,705,705,705,705,705,705,705,720,720,720,720,720,720,720,720,720,720,720,720,720,720,720,720,720,720,720,736,736,736,736,736,736,736,736,736,736,736,736,736,736,736,753,753,753,753,753,753,753,753,753,753,753,753,753,771,771,771,771,771,771,771,771,771,771,771,771,771,771,771,771,771,771,789,789,789,789,789,789,789,789,789,789,789,789,789,789,808,808,808,808,808,808,808,808,808,808,808,808,808,808,808,828,828,828,828,828,828,828,828,828,828,828,828,828,828,828,828,850,850,850,850,850,850,850,850,850,850,850,850,0,0,0,0,0,850,850,850,850,850,850,850,850,850,850,850,850,850,850,850,850,850,850,850,850,0,0,0,0,0,850,850,850,850,850,850,850,850,850,0,0,0,0,0,0,0,0,0,0,0,0,0,0,0,0,0,0,0,0,0,0,0,0,0,1143,1143,1143,1143,1143,1143,1143,1143,1143,1143,1143,1143,1143,1143,1143,1143,1143,1143,1143,1143,1143,1143,1143,1143,1143,0,0,0,0,0,1104,1069,1069,1069,1104,1104,1104,1104,1104,1104,1143,1143,1143,1143,1143,1143,1143,1143,1143,1143,1143,1143,1143,1143,1143,1143,1143,1143,1143,1143,1143,1143,1143,1143,1143,1143,1143,1143,1183,1183,1183,1183,1183,1183,1183,1143,1143,1183,1183,1183,1183,828,828,828,808,808,808,808,808,808,808,808,808,808,808,808,808,828,828,850,828,828,828,850,828,850,0,0,0,0,0,0,0,0,0,0,0,0,0,0,0,0,0,0,0,0,0,0,0,0,0,0,0,0,0,0,0,0,0,0,0,0,0,0,0,0,0,0,0,0,0,0,0,0,0,0,0,0,0,0,0,0,0,0,0,0,0,0,1744,0,0,0,0,0,1744,0,0,0,1744,0,0,0,0,0,0,0,0,0,0,0,0,0,0,0,0,0,0,0,0,0,0,0,0,0,0,0,0,0,0,0,0,0,1840,1840,0,0,0,0,0,0,0,0,0,0,0,0,0,0,0,0,0,0,0,0,0,0,0,0,0,0,0,0,0,0,0,0,0,0,0,0,0,0,0,0,0,0,0,0,0,0,0,0,6624,6624,6624,16560,33119,33119,33119,33119,0,3011,3011,0,2760,2760,0,0,2760,0,0,0,0,0,0,0,0,0,0,0,0,0,2548,2548,2366,2366,2366,2548,2548,2548,2548,2548,2548,2548,2548,2548,2548,2548,2548,2548,2548,2548,2548,2548,2366,2366,2366,2366,2548,2548,2366,2366,2366,2366,2366,2548,2548,2548,2548,2548,2548,2548,2366,2366,2366,2366,2366,2366,2366,2366,2366,2366,2366,2366,2366,2366,2366,2366,2366,2366,2366,2366,2366,2366,2366,2366,2208,2366,2366,2366,2366,2366,2208,2208,2208,2208,2208,2366,2366,2208,2208,2208,2208,2208,2208,2208,2208,2208,2208,2208,2208,2208,2208,2208,2208,2070,2208,2208,2208,2208,2208,2208,2208,2208,2208,2208,2366,2760,3011,3312,3011,3011,2208,2208,2208,2208,2208,2208,2208,2208,2208,2208
663,663,663,663,663,663,663,663,663,663,663,676,676,676,676,676,676,676,676,676,676,676,690,690,690,690,690,690,690,690,690,705,705,705,705,705,705,705,705,705,705,705,720,720,720,720,720,720,720,720,720,720,720,720,720,720,720,720,720,720,720,736,736,736,736,736,736,736,736,736,736,736,736,736,736,736,753,753,753,753,753,753,753,753,753,753,753,753,753,753,771,771,771,771,771,771,771,771,771,771,771,771,771,771,771,771,771,771,789,789,789,789,789,789,789,789,789,808,789,808,808,808,808,808,808,808,808,808,808,808,808,808,808,808,808,808,828,828,828,828,828,828,828,828,828,828,828,828,828,828,828,828,850,850,850,850,850,850,850,850,850,850,850,850,850,0,0,0,0,850,850,850,850,850,850,850,850,850,850,850,850,850,850,850,850,850,850,850,850,0,0,0,0,0,850,850,850,850,850,850,850,850,850,0,0,0,0,0,0,0,0,0,0,0,0,0,0,0,0,0,0,0,0,0,0,0,0,0,1143,1143,1143,1143,1143,1143,1143,1143,1143,1143,1143,1143,1143,1143,1143,1143,1143,1143,1143,1143,1143,1143,1143,1143,1143,1183,1183,0,1143,1143,1104,1104,1069,1104,1104,1104,1104,1104,1104,1104,1143,1143,1143,1143,1143,1143,1143,1143,1143,1143,1143,1143,1143,1143,1143,1143,1143,1143,1143,1143,1143,1143,1143,1143,1143,1143,1143,1143,1183,1183,1183,1183,1183,1183,1183,1143,1143,1183,1183,1183,1183,1183,828,828,828,808,808,808,808,808,808,808,808,808,808,808,828,828,828,828,828,828,828,850,828,850,920,0,0,0,920,0,850,850,0,0,0,0,0,0,0,0,0,0,0,0,0,0,0,0,0,0,0,0,0,0,0,0,0,0,0,0,0,0,0,0,0,0,0,0,0,0,0,0,0,0,0,0,0,0,0,0,0,0,0,0,1744,1578,1578,1578,1656,1656,1656,1656,1656,1656,1840,1840,1744,0,0,0,0,0,0,0,0,0,0,0,0,0,0,1840,0,1840,1840,1840,1840,0,0,0,0,0,0,0,0,0,0,0,0,0,1840,1840,1840,1949,0,0,0,0,0,0,0,0,0,0,0,0,0,0,0,0,0,0,0,0,0,0,0,0,1840,0,0,0,0,0,0,0,0,0,0,0,0,0,0,0,0,0,0,0,0,0,0,0,0,33119,0,0,33119,0,0,3011,3011,0,2760,2760,0,0,0,0,0,0,0,0,0,0,0,0,0,0,0,0,0,2548,2366,2366,2366,2548,2548,2548,2548,2548,2548,2548,2548,2548,2548,2548,2548,2548,2548,2548,2548,2366,2366,2366,2366,2366,2548,2548,2366,2366,2366,2366,2366,2548,2548,2548,2548,2548,2548,2548,2366,2366,2366,2366,2366,2366,2366,2366,2366,2366,2366,2366,2366,2366,2366,2366,2366,2366,2366,2366,2366,2366,2366,2366,2208,2366,2208,2366,2366,2366,2208,2208,2208,2208,2208,2366,2366,2208,2208,2208,2208,2208,2208,2208,2208,2208,2208,2208,2208,2208,2208,2208,2208,2070,2208,2208,2070,2208,2208,2208,2208,2208,2208,2208,2366,2548,2760,3312,3011,3011,2208,2208,2208,2208,2208,2208,2208,2208,2208,2208
663,663,663,663,663,663,663,663,663,676,676,676,676,676,676,676,676,676,676,676,676,676,690,690,690,690,690,690,690,690,690,705,705,705,705,705,705,705,705,705,705,705,720,720,720,720,720,720,720,720,720,720,720,720,720,720,720,720,720,720,720,736,736,736,736,736,736,736,736,736,736,736,736,736,736,736,753,753,753,753,753,753,753,753,753,753,753,753,753,753,771,771,771,771,771,771,771,771,771,771,771,771,771,771,771,771,771,771,789,789,789,789,789,789,789,789,789,808,789,808,808,808,808,808,808,808,808,808,808,808,808,808,808,808,808,828,828,828,828,828,828,828,828,828,828,828,828,828,828,828,828,828,850,850,850,850,850,850,850,850,850,850,850,850,850,0,0,0,0,850,850,850,850,850,850,850,850,850,850,850,850,850,850,850,850,850,850,850,850,850,0,0,0,850,850,850,850,850,850,850,850,850,0,0,0,0,0,0,0,0,0,0,0,0,0,0,0,0,0,0,0,0,0,0,0,0,0,0,1183,1143,1143,1143,1143,1143,1143,1143,1143,1143,1143,1143,1143,1143,1143,1143,1143,1143,1143,1143,1143,1143,1143,1143,1143,1183,1183,0,0,1143,1143,1143,1104,1104,1104,1104,1104,1104,1104,1104,1143,1143,1143,1143,1143,1143,1143,1143,1143,1143,1143,1143,1143,1143,1143,1143,1143,1143,1143,1143,1143,1143,1143,1143,1143,1143,1143,1143,1183,1183,1183,1183,1183,1183,1183,1183,1183,1183,1183,1183,1183,1183,828,828,828,808,808,808,808,808,808,808,808,808,808,808,828,828,828,850,828,828,828,828,828,850,0,0,0,0,920,0,850,850,0,0,0,0,0,0,0,0,0,0,0,0,0,0,0,0,0,0,0,0,0,0,0,0,0,0,0,0,0,0,0,0,0,0,0,0,0,0,0,0,0,0,0,0,0,0,0,0,0,0,0,0,1578,1578,1578,1578,1578,1578,1578,1656,1656,1656,1840,1840,1840,0,0,0,0,0,0,0,0,0,0,0,0,1840,1840,1840,1840,1840,1840,1840,1840,0,0,0,0,0,1840,1840,1840,1840,1840,1840,1840,1840,1840,1840,1840,1840,0,0,0,0,0,0,0,0,0,0,0,0,0,0,0,0,0,0,0,0,0,0,0,0,0,0,0,0,0,0,0,0,0,0,0,0,0,0,0,0,0,0,0,0,0,0,0,0,0,33119,0,0,0,0,0,6624,3011,0,0,3011,0,0,0,0,0,0,0,0,0,0,0,0,0,0,0,0,0,2548,2548,2760,2760,2760,2760,2760,2548,2548,2548,2548,2548,2548,2548,2548,2548,2548,2548,2548,2548,2366,2366,2366,2366,2366,2366,2548,2366,2366,2366,2366,2366,2548,2548,2548,2548,2548,2548,2548,2366,2366,2366,2366,2366,2366,2366,2366,2366,2366,2366,2366,2366,2366,2366,2366,2366,2366,2366,2366,2366,2366,2366,2208,2208,2208,2208,2208,2208,2208,2208,2208,2208,2208,2208,2208,2208,2208,2070,2208,2070,2208,2208,2208,2208,2208,2208,2208,2208,2208,2208,2208,2070,2070,2070,2070,2070,2070,2208,2208,2070,2208,2208,2208,2366,2548,2760,3011,3011,3011,2208,2208,2208,2208,2208,2208,2208,2208,2208,2208
663,663,663,663,663,663,663,663,663,676,676,676,676,676,676,676,676,676,676,676,676,690,690,690,690,690,690,690,690,690,705,705,705,705,705,705,705,705,705,705,705,705,720,720,720,720,720,720,720,720,720,720,720,720,720,720,720,720,720,720,720,736,736,736,736,736,736,736,736,736,736,736,736,736,736,736,753,753,753,753,753,753,753,753,753,753,753,753,753,753,771,771,771,771,771,771,771,771,771,771,771,771,771,771,771,771,771,771,789,789,789,789,789,789,789,789,789,808,789,808,808,808,808,808,808,808,808,808,808,808,808,808,808,808,808,828,828,828,828,828,828,828,828,828,828,828,828,828,828,828,828,828,850,850,850,850,850,850,850,850,850,850,850,850,850,850,850,0,850,850,850,850,850,850,850,850,850,850,850,850,850,850,850,850,850,850,850,850,850,850,850,872,850,850,850,850,850,850,850,850,850,850,850,0,0,0,0,0,0,0,0,0,0,0,0,0,0,0,0,0,0,0,0,0,0,0,0,0,0,1143,1143,1143,1143,1143,1143,1143,1143,1143,1143,1143,1143,1143,1143,1143,1143,1143,1143,1143,1143,1143,1143,1143,1143,1183,1183,0,0,1143,1143,1143,1143,1143,1104,1104,1104,1104,1104,1104,1143,1143,1143,1143,1143,1143,1143,1143,1143,1143,1143,1143,1143,1143,1143,1143,1143,1143,1143,1143,1143,1143,1143,1143,1143,1143,1143,1183,1183,1183,1183,1183,1183,1183,1183,1183,1183,1183,1183,1183,1183,1183,828,828,828,808,808,808,808,808,808,808,808,808,808,808,828,828,828,828,828,828,828,850,850,850,0,0,0,0,0,0,0,0,0,0,0,0,0,0,0,0,0,0,0,0,0,0,0,0,0,0,0,0,0,0,0,0,0,0,0,0,0,0,0,0,0,0,0,0,0,0,0,0,0,0,0,0,0,0,0,0,0,0,0,0,1578,1578,1578,1578,1578,1578,1578,1656,1656,1656,1656,1656,1744,1840,1840,0,0,0,0,0,0,0,0,0,0,1840,1840,1840,1840,1840,1840,1840,1840,1840,0,0,0,1840,1840,1840,1840,1840,0,0,0,1840,1840,1840,1840,1840,0,0,0,0,0,0,0,0,0,0,828,0,0,1380,0,0,0,0,0,0,0,0,0,0,0,0,0,0,0,0,0,0,0,0,0,0,0,0,0,0,0,0,0,0,0,0,0,0,0,33119,0,0,0,0,0,3011,3011,0,0,0,0,0,0,0,0,0,3011,0,0,0,0,0,0,0,0,0,2760,2548,2548,2760,2760,2760,2760,2760,2760,2548,2548,2548,2548,2548,2548,3011,2548,2548,2548,2548,2548,2548,2366,2366,2366,2366,2548,2548,2366,2366,2366,2366,2366,2548,2548,2548,2548,2548,2548,2548,2366,2366,2366,2366,2366,2366,2366,2366,2366,2366,2366,2366,2366,2366,2366,2366,2366,2366,2366,2366,2366,2366,2366,2208,2208,2208,2208,2208,2208,2208,2208,2208,2208,2208,2208,2208,2208,2070,2070,2070,2070,2070,2070,2208,2208,2208,2208,2208,2208,2208,2208,2208,2070,2070,2070,2070,2070,2070,2070,2070,2070,2070,2208,2208,2366,2548,2760,3011,3011,3011,2208,2208,2070,2070,2070,2070,2070,2070,2070,2070
663,663,663,663,663,663,663,663,663,676,676,676,676,676,676,676,676,676,676,676,676,690,690,690,690,690,690,690,690,690,705,705,705,705,705,705,705,705,705,705,705,705,720,720,720,720,720,720,720,720,720,720,720,720,720,720,720,720,720,720,720,720,736,736,736,736,736,736,736,736,736,736,736,736,736,736,753,753,753,753,753,753,753,753,753,753,753,753,753,753,771,771,771,771,771,771,771,771,771,771,771,771,771,771,771,771,771,771,789,789,789,789,789,789,789,789,789,808,808,808,808,808,808,808,808,808,808,808,808,808,808,808,808,808,808,828,828,828,828,828,828,828,828,828,828,828,828,828,828,828,828,850,850,850,850,850,850,850,850,850,850,850,850,850,850,850,850,850,850,850,850,850,850,850,850,850,850,850,850,850,850,850,850,850,850,850,850,850,850,850,850,850,850,850,850,850,850,850,850,850,850,850,850,0,0,0,0,0,0,0,0,0,0,0,0,0,0,0,0,0,0,0,0,0,0,0,0,0,0,1227,1183,1143,1143,1143,1143,1143,1143,1143,1143,1143,1143,1143,1143,1183,1143,1143,1143,1143,1143,1143,1143,1183,1183,1183,1183,0,0,0,0,0,0,1143,1143,1104,1104,1104,1104,1143,1143,1143,1143,1143,1143,1143,1143,1143,1143,1143,1143,1143,1143,1143,1143,1143,1143,1143,1143,1143,1143,1143,1143,1143,1143,1183,1183,1183,1183,1183,1183,1183,1183,1183,1183,1183,1183,1183,1183,1183,1183,1183,828,828,828,808,808,808,808,808,808,808,808,808,808,808,828,828,828,850,828,828,850,850,850,850,0,0,0,0,920,850,850,850,0,0,0,0,0,0,0,0,0,0,0,0,0,0,0,0,0,0,0,0,0,0,0,0,0,0,0,0,0,0,0,0,0,0,0,0,0,0,0,0,0,0,0,0,0,0,0,0,0,0,0,0,1656,1578,1578,1578,1578,1578,1578,1656,1656,1656,1656,1656,1656,1744,1744,1840,1840,0,0,0,1840,1840,0,1840,1840,1840,1840,1840,1840,1840,1840,1840,1840,1840,0,0,0,1840,1840,1840,1840,1840,1840,1840,1840,1840,1840,1840,1840,1949,0,0,0,0,0,0,0,0,0,0,828,850,850,1183,0,0,0,0,0,0,0,0,0,0,0,0,0,0,0,0,0,0,0,0,0,0,0,0,0,0,0,3680,4140,4732,0,0,6624,6624,0,0,0,0,0,0,0,11040,3011,0,0,0,0,0,0,0,0,2760,2760,3011,0,0,0,0,0,0,0,0,2760,2548,2366,2760,2760,2760,2760,2760,2760,2760,2548,2548,2548,2548,3011,3011,2760,2548,3011,2548,2548,3011,2366,2366,2366,2366,2548,3011,2760,2366,2366,2366,2366,2548,2548,2548,2548,2548,2548,2548,2366,2366,2366,2366,2366,2366,2366,2366,2366,2366,2366,2366,2366,2366,2366,2366,2366,2366,2366,2366,2366,2366,2366,2208,2208,2208,2208,2208,2208,2208,2208,2208,2208,2208,2208,2208,2208,2070,2070,2070,2070,2070,2070,2208,2208,2208,2208,2208,2208,2208,2208,2208,2070,2070,2070,2070,2070,2070,2070,2070,2070,2070,2070,2208,2366,2548,2760,3011,3011,3011,2208,2208,2070,2070,2070,2070,2070,2070,2070,2070
663,663,663,663,663,663,663,663,663,676,663,676,676,676,676,676,676,676,676,676,690,690,690,690,690,690,690,690,690,705,705,705,705,705,705,705,705,705,705,705,705,705,705,705,705,720,720,720,720,720,720,720,720,720,720,720,720,720,720,720,720,720,736,736,736,736,736,736,736,736,736,736,736,736,736,736,736,753,753,753,753,753,753,753,753,753,753,753,753,771,771,771,771,771,771,771,771,771,771,771,771,771,771,771,771,771,771,771,789,789,789,789,789,789,789,789,789,808,808,808,808,808,808,808,808,808,808,808,808,808,808,808,808,808,808,828,828,828,828,828,828,828,828,828,828,828,828,828,828,828,828,850,850,850,850,850,850,850,850,850,850,850,850,850,850,850,850,850,850,850,850,850,850,850,850,850,850,850,850,850,850,850,850,850,850,850,850,850,850,850,850,850,850,850,850,850,850,850,850,850,850,850,850,0,0,0,0,0,0,0,0,0,0,0,0,0,0,0,0,0,0,0,0,0,0,0,0,0,0,0,1183,1183,1183,1183,1183,1183,1183,1183,1143,1143,1143,1143,1183,1183,1183,1183,1183,1183,1143,1183,1183,1183,1183,1183,0,0,0,0,0,0,0,0,1143,1143,1143,1104,1104,1143,1143,1143,1143,1143,1143,1143,1143,1143,1143,1143,1143,1143,1143,1143,1143,1143,1143,1143,1143,1143,1143,1143,1143,1143,1143,1183,1183,1183,1183,1183,1183,1183,1183,1183,1183,1183,1183,1183,1183,1183,1183,1183,828,828,828,808,808,808,808,808,808,808,808,808,808,808,828,828,828,850,828,850,850,850,850,850,0,0,0,0,0,850,850,850,0,0,0,0,0,0,0,0,0,0,0,0,0,0,0,0,0,872,872,872,872,0,0,0,0,0,0,0,0,0,0,0,0,0,0,0,0,0,0,0,0,0,0,0,0,0,0,0,0,0,0,0,1656,1578,1578,1578,1578,1578,1578,1656,1656,1656,1656,1656,1656,1656,1744,1840,0,0,0,0,0,0,0,0,1840,1840,1840,1840,1840,1840,1840,1840,1840,1840,1840,0,0,1840,1840,1840,1840,1840,1840,0,1840,1840,1840,1840,1840,1840,0,0,0,0,0,0,0,0,0,0,0,0,0,1183,0,0,0,0,0,0,0,0,0,1227,1227,0,0,0,0,0,0,0,0,0,0,0,0,0,0,0,0,3680,4140,4732,5520,6624,6624,6624,6624,0,0,0,0,0,0,6624,3011,0,0,0,0,0,0,0,0,2760,2760,2760,3680,0,0,0,0,0,0,0,2760,2760,2548,0,2760,2760,2760,2760,2760,2760,2548,2548,2548,2548,2760,3011,2760,2548,3011,2548,2548,0,0,3011,3011,3011,3011,3011,3011,2366,2366,2366,2366,2548,2548,2548,2548,2548,2548,2548,2366,2366,2366,2366,2366,2366,2366,2366,2366,2366,2366,2366,2366,2366,2366,2366,2366,2366,2366,2366,2366,2366,2366,2208,2208,2208,2208,2208,2208,2208,2208,2208,2208,2208,2208,2208,2208,2070,2070,2070,2070,2070,2070,2208,2208,2208,2208,2208,2208,2208,2070,2070,2070,2070,2070,2070,2070,2070,2070,2070,2070,2070,2070,2208,2366,2548,2760,3011,3312,3312,2208,2208,2070,2070,2070,2070,2070,2070,2070,2070
663,650,663,663,663,663,663,663,663,676,676,676,676,676,676,676,676,676,676,676,690,690,690,690,690,690,690,690,690,705,705,705,705,705,705,705,705,705,705,705,705,705,720,720,720,720,720,720,720,720,720,720,720,720,720,720,720,720,720,720,720,720,736,736,736,736,736,736,736,736,736,736,736,736,736,736,753,753,753,753,753,753,753,753,753,753,753,753,753,771,771,771,771,771,771,771,771,771,771,771,771,771,771,771,771,789,789,789,789,789,789,789,789,789,789,789,789,808,808,808,808,808,808,808,808,808,808,808,808,808,808,808,808,808,808,828,828,828,828,828,828,828,828,828,828,828,828,828,828,828,828,850,850,850,850,850,850,850,850,850,850,850,850,850,850,850,850,0,0,0,850,0,850,850,850,850,850,850,850,850,850,850,850,850,850,850,850,850,850,850,850,850,850,850,850,850,850,850,850,850,850,850,850,0,0,0,0,0,0,0,0,0,0,0,0,0,0,0,0,0,0,0,0,0,0,0,0,0,0,0,0,0,0,1227,1183,1183,1183,1183,1183,1183,1183,1183,1183,1183,1183,1183,1183,1183,1183,1183,1183,1183,1183,1183,0,0,0,0,0,0,0,0,0,1143,1143,1104,1104,1143,1143,1143,1143,1143,1143,1143,1143,1143,1143,1143,1143,1143,1143,1143,1143,1143,1183,1143,1183,1183,1143,1183,1183,1183,1183,1183,1183,1183,1183,1183,1183,1183,1183,1183,1183,1183,1183,1183,1183,1183,1183,1183,828,828,828,808,828,808,808,808,808,808,808,808,808,808,828,828,828,850,850,850,850,850,850,850,0,0,0,0,0,850,850,850,0,0,0,0,0,0,0,0,0,0,0,0,0,0,0,0,0,872,872,872,872,872,896,0,0,872,872,872,872,1069,0,0,0,0,0,0,0,0,0,0,0,0,0,0,0,0,0,0,0,0,0,0,1656,1578,1578,1578,1578,1578,1656,1656,1656,1656,1656,1656,1656,1656,1656,1840,0,0,0,0,0,0,0,0,1840,1840,1840,1840,1840,1840,1840,1840,1840,1840,2366,0,0,1840,1840,1840,1840,1840,0,0,0,1840,1840,1840,1840,1840,0,0,0,0,0,0,0,0,0,0,0,0,0,1183,0,0,0,0,0,0,0,0,0,0,0,0,0,0,0,0,0,0,0,0,0,0,0,0,0,0,3312,3312,3680,4140,4732,5520,6624,6624,6624,6624,0,0,0,0,0,6624,3011,0,0,0,0,0,0,0,0,2760,2760,2760,3680,0,0,0,0,0,0,0,2760,2760,2366,0,2760,2760,2760,2760,2760,2548,2548,2548,2548,2548,2760,3011,2760,2548,2760,2760,0,0,0,0,0,0,3011,3011,3011,2548,2366,2366,2548,2548,2548,2548,2548,2548,2548,2548,2366,2366,2366,2366,2366,2366,2366,2366,2366,2366,2366,2366,2366,2366,2366,2366,2366,2366,2366,2366,2208,2208,2208,2208,2208,2208,2208,2208,2208,2208,2208,2208,2208,2208,2208,2208,2208,2070,2070,2070,2070,2070,2070,2208,2208,2208,2208,2208,2208,2208,2208,2208,2070,2070,2070,2070,2070,2070,2208,2070,2070,2070,2070,2208,2366,2548,2760,3011,3312,3312,3312,2208,2208,2208,2208,2208,2208,2208,2208,2208
663,663,663,663,663,663,663,663,676,676,676,676,676,676,676,676,676,676,676,690,690,690,690,690,690,690,690,690,690,705,705,705,705,705,705,705,705,705,705,705,705,705,720,720,720,720,720,720,720,720,720,720,720,720,720,720,720,720,720,720,720,720,720,736,736,736,736,736,736,736,736,736,736,736,736,736,753,753,753,753,753,753,753,753,753,753,753,753,753,771,771,771,771,771,771,771,771,771,771,771,771,771,771,771,771,789,789,789,789,789,789,789,789,789,789,789,789,808,808,808,808,808,808,808,808,808,808,808,808,808,808,808,808,808,808,828,828,828,828,828,828,828,828,828,828,828,828,828,828,828,828,850,850,850,850,850,850,850,850,850,850,850,850,850,850,850,850,850,850,850,850,850,850,850,850,850,850,850,850,850,850,850,850,850,850,850,850,850,850,850,850,850,850,850,850,850,850,850,850,850,850,850,850,0,0,0,0,0,0,0,0,0,0,0,0,0,0,0,0,0,0,0,0,0,0,0,0,0,0,0,0,0,0,1227,1183,1183,1183,1183,1183,1183,1183,1183,1183,1183,1183,1183,1183,1183,1183,1183,1183,1183,1183,1183,0,0,0,0,0,0,0,0,0,0,1143,1104,1104,1143,1143,1143,1143,1143,1143,1143,1143,1143,1143,1143,1143,1143,1143,1143,1143,1183,1183,1183,1183,1183,1183,1183,1183,1183,1183,1183,1183,1183,1183,1183,1183,1183,1183,1183,1183,1183,1183,1183,1183,1183,1183,1183,828,828,828,828,828,808,808,808,808,808,808,808,808,808,828,828,828,850,850,850,850,850,850,850,0,0,0,0,0,850,850,850,872,0,0,0,0,0,0,0,0,0,0,0,0,0,0,0,872,850,850,850,850,850,850,850,828,828,828,828,828,828,850,872,0,0,0,0,0,0,0,0,0,0,0,0,0,0,0,0,0,0,0,1656,1578,1578,1578,1578,1578,1656,1656,1656,1656,0,1656,1656,1656,1656,1656,1656,1656,1744,0,0,0,0,0,0,0,1840,1840,1840,0,1840,1840,1840,1840,1840,1840,2366,0,1840,1840,1840,1840,1840,0,0,0,0,1840,1840,1840,1949,1949,0,0,0,0,0,0,0,0,0,0,0,0,1183,0,0,0,0,0,0,0,0,0,0,0,0,0,0,0,0,0,0,0,0,0,0,0,0,0,0,3312,3312,3680,4140,4732,5520,6624,6624,6624,0,0,0,0,0,0,3011,3011,0,0,2760,0,0,0,0,0,2760,2760,2760,3680,0,0,0,0,0,0,0,2760,2760,2548,2548,2548,2760,2760,2760,2760,2548,2548,2548,2548,2548,2760,2760,2548,2548,2548,2548,3011,0,0,0,3011,3011,3011,3011,3011,2548,2366,2366,2548,2548,2548,2548,2548,2548,2548,2548,2366,2366,2366,2366,2366,2366,2548,2548,2548,2366,2366,2366,2366,2366,2366,2366,2366,2366,2366,2366,2548,2366,2366,2208,2208,2208,2208,2208,2208,2208,2208,2208,2208,2208,2208,2208,2208,2070,2070,2070,2070,2208,2208,2208,2208,2208,2208,2208,2208,2208,2208,2208,2070,2070,2070,2208,2070,2208,2208,2208,2070,2208,2208,2208,2366,2548,2760,3011,3312,3312,3312,2208,2208,2208,2208,2208,2208,2208,2208,2208
650,650,663,663,663,663,663,663,676,676,676,676,676,676,676,676,676,676,676,690,690,690,690,690,690,690,690,690,690,705,705,705,705,705,705,705,705,705,705,705,705,705,720,720,720,720,720,720,720,720,720,720,720,720,720,720,720,720,720,720,720,720,720,736,736,736,736,736,736,736,736,736,736,736,736,736,753,753,753,753,753,753,753,753,753,753,753,753,771,771,771,771,771,771,771,771,771,771,771,771,771,771,771,771,771,789,789,789,789,789,789,789,789,789,789,789,789,808,808,808,808,808,808,808,808,808,808,808,808,808,808,808,808,808,808,828,828,828,828,828,828,828,828,828,828,828,828,828,828,828,828,828,850,850,850,850,850,850,850,850,850,850,850,850,850,850,850,850,0,0,872,872,872,872,872,872,850,850,850,850,850,850,850,850,850,850,850,850,850,850,850,0,0,850,850,850,850,850,850,850,850,850,872,0,0,0,0,0,0,0,0,0,0,0,0,0,0,0,0,0,0,0,0,0,0,0,0,0,0,0,0,0,0,0,1183,1183,1183,1183,1183,1183,1183,1183,1183,1183,1183,1183,1183,1183,1183,1183,1183,1183,1183,1183,0,0,0,0,0,0,0,0,0,0,0,1143,1143,1143,1143,1143,1143,1143,1143,1143,1143,1143,1143,1143,1143,1143,1143,1143,1183,1183,1183,1183,1183,1183,1183,1183,1183,1183,1183,1183,1183,1183,1183,1183,1183,1183,1183,1183,1183,1183,1183,1183,1183,1183,1183,1183,828,828,828,828,828,808,808,808,808,808,808,808,808,808,828,828,828,850,828,850,850,850,850,850,872,0,0,0,850,850,850,850,850,1004,0,0,0,0,0,0,0,0,1004,0,0,0,0,0,872,850,850,850,850,828,828,828,828,828,828,828,828,828,828,872,1440,0,0,0,0,0,0,0,0,0,0,0,0,0,0,0,0,0,1578,1183,1506,1506,1506,1506,1578,1656,1656,0,0,0,0,0,0,0,1744,0,1744,0,0,0,0,0,0,0,0,0,0,0,0,1840,1840,1840,1840,1840,0,0,0,1840,1840,1840,1840,1840,0,0,1840,1840,1840,1840,1840,1840,1949,0,0,0,0,0,0,0,0,0,0,0,0,0,0,0,0,0,0,0,0,0,0,0,0,0,0,0,0,0,0,0,0,0,0,0,0,0,0,0,0,3680,3680,4140,4140,4732,6624,6624,6624,0,0,0,0,0,0,3011,3011,0,2760,2760,0,0,0,0,0,2760,2760,2760,2760,0,0,0,0,0,0,0,2760,2760,2548,2760,2760,2760,2760,2760,2760,2548,2548,2548,2548,2548,2548,2548,2548,2548,2548,2548,2548,0,0,0,0,0,3011,3011,3011,2548,2548,2548,2548,2548,2548,2548,2548,2548,2548,2548,2548,2366,2366,2366,2366,2366,2548,2548,2548,2548,2366,2366,2366,2366,2366,2366,2366,2366,2366,2366,2366,2366,2366,2208,2208,2366,2208,2208,2208,2208,2208,2208,2208,2208,2208,2208,2208,2070,2070,2070,2070,2208,2208,2208,2208,2208,2208,2208,2208,2208,2208,2208,2070,2070,2070,2208,2208,2208,2208,2208,2208,2208,2208,2208,2366,2548,2760,3011,3312,3312,3312,2208,2208,2208,2208,2208,2208,2208,2208,2208
650,650,663,663,663,663,663,676,676,676,676,676,676,676,676,676,676,676,690,690,690,690,690,690,690,690,690,690,690,690,705,705,705,705,705,705,705,705,705,705,705,705,705,705,705,720,720,720,720,720,720,720,720,720,720,720,720,720,720,720,720,720,736,736,736,736,736,736,736,736,736,736,736,736,753,753,753,753,753,753,753,753,753,753,753,753,753,753,771,771,771,771,771,771,771,771,771,771,771,771,771,771,771,771,771,789,789,789,789,789,789,789,789,789,789,789,789,808,808,808,808,808,808,808,808,808,808,808,808,808,808,808,808,808,808,808,828,828,828,828,828,828,828,828,828,828,828,828,828,828,828,828,850,850,850,850,850,850,850,850,850,850,850,850,850,850,850,850,0,0,0,872,0,872,872,872,872,850,850,850,850,850,850,850,850,850,850,850,850,850,872,0,0,850,850,850,850,850,850,850,850,850,872,0,0,0,0,0,0,0,0,0,0,0,0,0,0,0,0,0,0,0,0,0,0,0,0,0,0,0,0,0,0,1227,1183,1183,1183,1183,1183,1183,1183,1183,1183,1183,1183,1183,1183,1183,1183,1183,1183,1183,1183,1183,1183,0,0,0,0,0,0,0,0,0,0,0,1183,1143,1143,1143,1143,1143,1143,1143,1143,1143,1143,1143,1143,1143,1143,1183,1183,1183,1183,1183,1183,1183,1183,1183,1183,1183,1183,1183,1183,1183,1183,1183,1183,1183,1183,1183,1183,1183,1183,1183,1183,1183,1183,1183,828,828,828,828,828,808,808,808,808,808,808,808,808,808,828,828,828,828,828,828,850,850,850,850,872,0,0,0,0,850,850,850,850,1004,0,0,0,0,0,0,0,0,1004,0,0,0,0,0,872,850,850,850,828,828,828,828,828,808,828,828,808,808,808,808,850,872,0,0,0,0,0,0,808,808,808,808,808,808,808,808,808,808,808,808,828,828,1183,1183,1506,1506,1578,0,0,0,0,0,0,0,0,1656,872,850,850,0,0,0,0,0,0,0,0,0,0,0,1840,1840,1840,1840,0,0,0,1840,1840,1840,1840,1840,1840,0,1840,1840,1840,1840,1840,1840,1949,0,0,0,0,0,0,0,0,0,0,0,0,0,0,0,0,0,0,0,0,0,0,0,0,0,0,0,0,0,0,0,0,0,0,0,0,0,0,0,0,3680,3680,4732,4732,0,0,0,0,0,0,0,4732,0,6624,3011,3011,0,2760,2760,2760,0,0,2760,2760,2760,2760,2760,2760,0,0,0,0,0,0,0,2760,2760,2548,2760,2760,2760,2760,2760,2760,2760,2548,2548,2548,2548,2548,2548,2548,2548,2548,2548,2548,0,0,0,0,0,0,0,0,2548,2548,2548,2548,2548,2548,2548,2548,2548,2548,2548,2548,2366,2366,2366,2366,2366,2548,2548,2548,2548,2366,2366,2366,2366,2366,2366,2366,2366,2366,2366,2366,2366,2366,2208,2208,2208,2208,2208,2208,2208,2208,2208,2208,2366,2208,2208,2208,2208,2070,2208,2208,2208,2208,2208,2208,2208,2208,2208,2208,2208,2208,2208,2070,2070,2070,2208,2208,2208,2208,2208,2208,2208,2208,2208,2366,2548,2760,3011,3312,3312,3312,2208,2208,2208,2208,2208,2208,2208,2208,2208
650,650,663,663,663,663,663,676,676,676,676,676,676,676,676,676,676,690,690,690,690,690,690,690,690,690,690,690,690,690,705,705,705,705,705,705,705,705,705,705,705,705,705,705,705,720,720,720,720,720,720,720,720,720,720,720,720,720,720,720,720,720,736,736,736,736,736,736,736,736,736,736,736,736,753,753,753,753,753,753,753,753,753,753,753,753,753,753,771,771,771,771,771,771,771,771,771,771,771,771,771,771,771,771,771,771,789,789,789,789,789,789,789,789,789,789,789,808,808,808,808,808,808,808,808,808,808,808,808,808,808,808,808,808,808,808,828,828,828,828,828,828,828,828,828,828,828,828,828,828,828,828,850,850,850,850,850,850,850,850,850,850,850,850,850,850,850,850,850,872,872,872,872,872,872,872,872,872,872,850,850,850,850,850,850,850,850,850,850,850,850,872,850,850,850,850,850,850,850,850,850,850,872,0,0,0,0,0,0,0,0,0,0,0,0,0,0,0,0,0,0,0,0,0,0,0,0,0,0,0,0,0,0,1227,1183,1183,1183,1183,1183,1183,1183,1183,1183,1183,1183,1183,1183,1183,1183,1183,1183,1183,1183,1183,1183,0,0,0,0,0,0,0,0,0,0,0,0,1143,1143,1143,1143,1143,1143,1143,1143,1143,1183,1183,1143,1143,1143,1183,1183,1183,1183,1183,1183,1183,1183,1183,1183,1183,1183,1183,1183,1183,1183,1183,1183,1183,1183,1183,1183,1183,1183,1183,1183,1183,1183,1183,828,828,828,828,828,808,808,808,808,808,808,808,808,808,828,828,828,828,828,828,828,828,828,828,850,0,0,0,0,850,828,828,850,1004,0,0,0,0,0,0,0,0,1004,0,0,0,0,0,872,850,850,828,828,828,828,828,828,808,828,828,808,808,808,808,808,808,872,872,808,808,808,808,808,808,808,808,808,808,808,808,808,808,808,808,808,808,808,828,828,1143,1143,1183,1183,0,0,0,0,0,0,850,850,850,850,850,0,0,0,0,0,0,0,0,0,0,0,0,2366,1840,0,0,0,1840,1840,1840,1840,1840,1840,1840,1840,1840,1840,1840,1840,1949,1949,0,0,0,0,0,0,0,0,0,0,0,0,0,0,0,0,0,0,0,0,0,0,0,0,0,0,0,0,0,0,0,0,0,0,0,0,0,0,2760,3312,3312,3312,4140,4732,0,0,0,0,0,0,0,0,0,3011,2760,2760,2760,2760,2760,2760,2760,2760,2760,2760,2760,2760,2760,2760,0,0,0,0,0,0,2760,2760,2760,2548,2760,2760,2760,2760,2760,2760,2760,2548,2548,2548,2548,2548,2548,2548,2548,2548,2548,2548,0,0,0,0,0,3011,0,3011,2548,2548,2548,2548,2548,2548,2548,2548,2548,2548,2548,2548,2366,2366,2366,2366,2366,2548,2548,2548,2548,2366,2366,2366,2366,2366,2366,2366,2366,2366,2366,2366,2366,2366,2366,2208,2366,2366,2208,2208,2366,2366,2366,2366,2366,2366,2366,2208,2208,2070,2208,2208,2208,2208,2208,2208,2208,2208,2208,2208,2208,2208,2208,2070,2070,2070,2208,2208,2208,2208,2208,2208,2208,2208,2208,2366,2548,2760,3011,3312,3312,3312,2208,2208,2208,2208,2208,2208,2208,2208,2208
650,650,663,663,663,663,663,663,676,676,676,676,676,676,676,676,690,690,690,690,690,690,690,690,690,690,690,690,690,690,690,705,705,705,705,705,705,705,705,705,705,705,705,705,720,720,720,720,720,720,720,720,720,720,720,720,720,720,736,736,736,736,736,736,736,736,736,736,736,736,753,753,753,753,753,753,753,753,753,753,753,753,753,753,753,753,753,753,771,771,771,771,771,771,771,771,771,771,771,771,771,771,771,771,771,771,771,789,789,789,789,789,789,789,789,789,808,808,808,808,808,808,808,808,808,808,808,808,808,808,808,808,808,808,808,808,828,828,828,828,828,828,828,828,828,828,828,828,828,828,828,828,828,850,850,850,850,850,850,850,850,850,850,850,850,850,850,850,850,850,850,850,872,872,872,872,872,872,872,872,850,850,850,850,850,850,850,850,850,850,850,872,850,850,850,850,850,850,850,850,850,850,872,0,0,0,0,0,0,0,0,0,0,0,0,0,0,0,0,0,0,0,0,0,0,0,0,0,0,0,0,0,0,1227,1227,1183,1183,1183,1183,1183,1183,1183,1183,1183,1183,1183,1183,1183,1183,1183,1183,1183,1183,1183,1183,0,0,0,0,0,0,0,0,0,0,0,0,1183,1143,1143,1143,1143,1143,1143,1183,1183,1183,1183,1183,1143,1183,1183,1183,1183,1183,1183,1183,1183,1183,1183,1183,1183,1183,1183,1183,1183,1183,1183,1183,1183,1183,1183,1183,1183,1183,1227,1227,1227,1183,1183,828,828,828,828,828,808,808,808,808,808,808,808,808,808,828,828,828,828,828,828,828,828,828,828,872,0,0,0,0,850,828,828,850,0,0,0,0,0,0,0,0,0,0,0,0,0,0,0,872,850,828,828,828,828,828,808,808,808,808,808,808,808,808,808,808,808,808,808,808,808,808,808,808,808,808,808,808,808,808,808,808,808,808,808,808,808,808,808,808,808,808,828,828,828,0,0,0,0,850,850,850,850,850,850,850,0,0,0,0,0,0,0,0,0,0,0,0,0,0,0,0,1840,1840,1840,1840,1840,1840,1840,1840,1840,1840,1840,1840,1949,1949,0,0,0,0,0,0,0,0,0,0,0,0,0,0,0,0,0,0,0,0,0,0,0,0,0,0,0,0,0,0,0,0,0,0,0,0,0,0,2760,3312,3312,3312,4140,5520,0,0,0,0,0,0,0,16560,6624,3011,2760,3011,2760,2760,2760,2760,2760,2760,2760,2760,2760,2760,2760,2760,0,0,0,0,0,0,0,2760,2760,2760,2760,2760,2760,2760,2760,2760,2760,2548,2548,2548,2548,2760,2760,2548,2548,2548,2548,3011,0,0,0,0,0,0,0,0,2760,2548,2548,2548,2548,2548,2548,2548,2548,2548,2548,2366,2366,2366,2366,2366,2366,2548,2548,2548,2548,2366,2366,2366,2366,2366,2366,2366,2366,2366,2366,2548,2366,2366,2366,2366,2366,2366,2366,2366,2366,2366,2366,2366,2366,2366,2366,2208,2208,2070,2208,2208,2208,2208,2208,2208,2208,2208,2208,2208,2208,2208,2208,2070,2070,2070,2208,2208,2208,2208,2208,2208,2208,2208,2208,2366,2548,2760,3011,3312,3312,3312,2208,2208,2208,2208,2208,2208,2208,2208,2208
650,650,663,663,663,663,663,663,663,676,676,676,676,676,676,676,690,690,690,690,690,690,690,690,690,690,690,690,690,690,690,690,705,690,705,690,690,705,705,705,705,705,705,705,720,720,720,720,720,720,720,720,720,720,720,720,720,736,736,736,736,736,736,736,736,736,736,736,736,736,753,753,753,753,753,753,753,753,753,753,753,753,753,753,753,753,753,753,771,771,771,771,771,771,771,771,771,771,771,771,771,771,771,771,771,771,771,771,789,789,789,789,789,789,789,789,789,808,808,808,808,808,808,808,808,808,808,808,808,808,808,808,808,808,808,828,828,828,828,828,828,828,828,828,828,828,828,828,828,828,828,828,850,850,850,850,850,850,850,850,850,850,850,850,850,850,850,850,850,850,850,872,872,872,872,872,872,872,872,872,872,872,872,850,850,850,850,850,850,850,850,872,850,850,850,850,850,850,850,850,850,850,872,872,0,0,0,0,0,0,0,0,0,0,0,0,0,0,0,0,0,0,0,0,0,0,0,0,0,0,0,0,0,0,1227,1227,1183,1183,1183,1183,1183,1183,1183,1183,1183,1183,1183,1183,1183,1183,1183,1183,1183,1183,1183,0,0,0,0,0,0,0,0,0,0,0,1183,1183,1143,1143,1143,1143,1143,1143,1183,1143,1183,1183,1183,1143,1183,1183,1183,1183,1183,1183,1183,1183,1183,1183,1183,1183,1183,1183,1183,1183,1183,1183,1183,1183,1183,1183,1183,1183,1227,1227,1227,1227,1183,1183,828,828,828,828,828,828,808,808,808,808,808,808,808,808,828,828,828,828,828,828,828,828,828,828,828,0,0,0,0,850,828,828,850,0,0,0,0,0,0,0,0,0,0,0,0,0,0,0,1069,828,828,828,828,828,808,808,808,808,808,808,808,808,808,808,808,808,808,808,808,808,808,808,808,808,808,808,808,808,808,808,808,808,808,808,808,808,808,808,808,808,808,808,808,828,828,828,828,850,850,850,850,850,850,850,850,0,0,0,0,0,0,0,0,0,0,0,0,0,0,0,0,1840,1840,1840,1840,1840,1840,1840,1840,1840,1840,1840,1840,1840,1840,0,0,0,0,0,0,0,0,0,0,0,0,0,0,0,0,0,0,0,0,0,0,0,0,0,0,0,0,0,0,0,0,0,0,0,0,0,0,0,3312,3312,3312,4140,5520,0,6624,6624,16560,0,0,0,33119,6624,6624,3011,3011,2760,0,2760,2760,2760,2760,2760,2760,2760,2760,2760,0,0,0,0,0,0,2760,2760,2760,2760,2760,2760,2760,2760,2760,2760,2760,2760,2548,2548,2548,2548,2548,2548,2548,2548,2548,2548,3011,0,0,0,0,0,0,0,0,2548,2366,2366,2548,2548,2548,2548,2548,2548,2548,2548,2366,2366,2366,2366,2366,2366,2366,2548,2548,2548,2366,2366,2366,2366,2366,2366,2366,2366,2366,2366,2548,2366,2366,2366,2366,2366,2366,2366,2366,2366,2366,2366,2366,2366,2366,2366,2208,2070,2070,2070,2070,2208,2208,2208,2208,2208,2208,2208,2208,2208,2208,2208,2070,2070,2070,2208,2208,2208,2208,2208,2208,2208,2208,2208,2366,2548,2760,3011,3312,3312,3312,2366,2208,2208,2208,2208,2208,2208,2208,2208
663,663,663,663,663,663,663,663,676,676,676,676,676,676,676,676,690,690,690,690,690,690,690,690,690,690,690,690,690,690,690,690,690,690,690,690,690,690,705,705,705,705,720,720,720,720,720,720,720,720,720,720,720,720,720,720,720,736,736,736,736,736,736,736,736,736,736,736,736,736,736,753,753,753,753,753,753,753,753,753,753,753,753,753,753,753,753,753,771,771,771,771,771,771,771,771,771,771,771,771,771,771,789,771,771,771,771,789,789,789,789,789,789,789,789,789,789,789,808,808,808,808,808,808,808,808,808,808,808,808,808,808,808,828,828,828,828,828,828,828,828,828,828,828,828,828,828,828,828,828,828,828,828,850,850,850,850,850,850,850,850,850,850,850,850,850,850,850,850,850,850,850,872,872,872,872,872,872,872,872,850,872,850,850,850,850,850,850,850,850,850,872,850,850,850,850,850,850,850,850,850,850,872,872,0,0,0,0,0,0,0,0,0,0,0,0,0,0,0,0,0,0,0,0,0,0,0,0,0,0,0,0,0,0,1227,1227,1227,1183,1183,1183,1183,1183,1183,1183,1183,1183,1183,1183,1183,1183,1183,1183,1183,1183,1183,0,0,0,0,0,0,0,0,0,0,0,1183,1143,1143,1143,1143,1143,1143,1143,1143,1143,1143,1143,1143,1143,1143,1183,1183,1183,1183,1183,1183,1183,1183,1183,1183,1183,1183,1183,1183,1183,1183,1183,1183,1183,1183,1183,1183,1183,1227,1227,1227,1227,1183,1183,828,828,828,828,828,828,808,808,828,808,808,808,808,808,828,828,828,828,828,828,828,828,828,828,850,0,0,0,0,850,850,828,850,0,0,0,0,0,0,0,0,0,0,0,0,0,0,0,1069,828,828,828,828,808,808,808,808,808,808,808,808,808,808,808,808,808,789,808,808,808,808,808,808,808,808,808,808,808,808,808,808,808,808,808,808,808,808,808,808,808,808,808,808,808,808,828,828,828,828,850,850,850,850,850,850,872,0,0,0,0,0,0,0,0,0,0,0,0,0,0,0,1840,1840,1840,1840,1840,1840,1840,1840,1840,1840,1840,1840,1840,1840,0,0,0,0,0,0,0,0,0,0,0,0,0,0,0,0,0,0,0,0,0,0,0,0,0,0,0,0,0,0,0,0,0,0,0,0,0,0,0,0,0,4140,4732,0,0,6624,6624,6624,33119,0,33119,33119,6624,6624,3011,3011,2760,0,2760,0,0,0,0,2760,2760,2760,2760,0,0,0,0,0,2760,2760,2760,2760,2760,2760,0,2760,2760,2760,2760,2760,2760,2548,2548,2548,2548,3011,3011,2548,2548,2548,2548,3011,3011,3011,3011,0,3011,3011,3011,3011,2548,2366,2366,2366,2548,2548,2548,2548,2548,2548,2366,2366,2366,2366,2366,2366,2366,2366,2366,2548,2548,2366,2366,2366,2366,2366,2366,2366,2366,2366,2366,2548,2366,2366,2366,2366,2366,2366,2366,2366,2366,2366,2366,2366,2366,2366,2366,2208,2070,2070,2070,2070,2208,2208,2208,2208,2208,2208,2208,2208,2208,2208,2208,2208,2070,2208,2208,2208,2208,2208,2208,2208,2208,2208,2208,2366,2548,2760,3011,3312,3312,3312,2366,2366,2208,2208,2208,2208,2208,2208,2208
663,663,663,663,663,663,663,676,676,676,676,676,676,676,676,676,690,690,690,690,690,690,690,690,690,690,690,690,690,690,690,690,705,690,690,690,705,705,705,705,705,720,720,720,720,720,720,720,720,720,720,720,720,720,720,720,720,720,736,736,736,736,736,736,736,736,736,736,736,736,736,736,753,753,753,753,753,753,753,753,753,753,753,753,753,753,753,753,753,771,771,771,771,771,771,771,771,771,771,771,771,771,771,771,771,771,771,789,789,789,789,789,789,789,789,789,789,789,808,808,808,808,808,808,808,808,808,808,808,808,808,808,808,828,828,828,828,828,828,828,828,828,828,828,828,828,828,828,828,828,828,828,828,850,850,850,850,850,850,850,850,850,850,850,850,850,850,850,850,850,850,850,872,872,872,872,872,872,872,872,850,872,872,850,850,850,850,850,850,850,872,872,850,850,850,850,850,850,850,850,850,850,872,872,872,0,0,0,0,0,0,0,0,0,0,0,0,0,0,0,0,0,0,0,0,0,0,0,0,0,0,0,0,0,0,1227,1227,1183,1183,1183,1183,1183,1183,1183,1183,1183,1183,1183,1183,1183,1183,1183,1183,1183,1183,0,0,0,0,0,0,0,0,0,0,1143,1143,1143,1143,1143,1143,1143,1143,1143,1143,1143,1143,1143,1143,1143,1143,1143,1183,1183,1183,1183,1183,1183,1183,1183,1183,1183,1183,1183,1183,1183,1183,1183,1183,1183,1183,1183,1183,1183,1227,1227,1227,1227,1183,1183,828,828,828,828,828,828,808,828,828,808,808,808,808,808,828,828,828,828,828,828,828,828,828,828,828,850,0,0,828,828,828,828,850,0,0,0,0,0,0,0,0,0,0,0,0,0,0,0,872,828,828,828,808,808,808,808,808,808,808,808,808,808,808,789,789,789,789,789,808,808,808,808,808,808,808,808,808,808,808,808,808,808,808,808,808,808,808,808,808,808,808,808,808,808,808,828,828,828,828,850,850,850,850,850,850,850,872,0,0,0,0,0,0,0,0,0,0,0,0,0,0,1840,1840,1840,1840,1840,1840,1840,1840,1840,1840,1840,1840,1840,1840,0,0,0,0,0,753,753,0,0,0,0,0,0,0,0,0,0,0,0,0,0,0,0,0,0,0,0,0,0,0,0,0,0,0,0,0,0,0,0,0,4732,4140,4732,5520,5520,6624,6624,6624,6624,33119,33119,33119,6624,6624,3011,3011,2760,0,0,0,0,0,0,2760,2760,3312,3312,0,0,0,0,3312,2760,2760,2760,2760,2760,0,0,2760,2760,2760,2760,2760,2548,2548,2548,2548,2548,3011,3011,2548,2548,2548,2548,2548,3011,3011,2548,0,3011,3011,3011,3011,2366,2366,2366,2366,2548,2548,2548,2548,2548,2548,2366,2366,2366,2366,2366,2366,2366,2366,2366,2366,2366,2366,2366,2366,2366,2366,2366,2366,2366,2366,2366,2366,2366,2366,2366,2366,2366,2366,2366,2366,2366,2366,2366,2366,2366,2366,2366,2208,2070,2070,2070,2070,2208,2208,2208,2208,2208,2208,2208,2208,2208,2208,2208,2208,2070,2208,2208,2208,2208,2208,2208,2208,2208,2208,2208,2366,2548,2760,3011,3312,3312,3312,2366,2366,2208,2208,2208,2208,2208,2208,2208
676,676,676,676,676,676,676,676,676,676,676,676,676,676,676,676,676,690,690,690,690,690,690,690,690,690,690,690,690,690,690,705,705,690,690,690,705,705,705,705,720,720,720,720,720,720,720,720,720,720,720,720,720,720,720,720,720,720,736,736,736,736,736,736,736,736,736,736,736,736,736,753,753,753,753,753,753,753,753,753,753,753,753,753,753,753,753,753,753,771,771,771,771,771,771,771,771,771,771,771,771,771,789,789,771,789,789,789,789,789,789,789,789,789,789,789,789,808,808,808,808,808,808,808,808,808,808,808,808,808,808,808,808,828,828,828,828,828,828,828,828,828,828,828,828,828,828,828,828,828,828,828,850,850,850,850,850,850,850,850,850,850,850,850,850,850,850,850,850,872,850,872,872,872,872,872,872,872,872,872,872,872,872,872,850,850,850,850,872,872,872,872,872,872,872,850,850,850,850,850,872,850,872,872,872,0,0,0,0,0,0,0,0,0,0,0,0,0,0,0,0,0,0,0,0,0,0,0,0,0,0,0,0,0,0,1227,1227,1183,1183,1183,1183,1183,1183,1183,1183,1183,1183,1183,1183,1183,1183,1183,1183,1183,1183,0,0,0,0,0,0,0,0,0,0,0,1183,1183,1143,1143,1143,1143,1143,1143,1143,1143,1143,1143,1143,1143,1143,1183,1183,1183,1183,1183,1183,1183,1183,1183,1183,1183,1183,1183,1183,1183,1183,1183,1183,1183,1183,1183,1183,1183,1183,1227,1227,1227,1183,1183,828,828,828,828,828,828,808,828,828,808,828,808,828,828,828,828,828,828,828,828,828,828,828,828,828,850,0,0,828,828,850,828,0,0,0,0,0,0,0,0,0,0,0,0,0,0,1069,1069,828,828,828,828,808,808,808,808,789,789,789,789,789,771,771,771,771,789,789,789,808,808,808,808,808,808,808,808,808,808,808,808,808,808,808,808,808,808,808,808,808,808,808,808,808,808,808,808,828,828,828,850,850,850,850,850,850,850,850,872,850,0,0,0,0,0,0,0,0,0,0,0,0,1840,1840,1840,1840,1840,1840,1840,1840,1840,1840,1840,1840,1840,1840,0,0,0,0,0,753,753,0,0,0,0,0,0,0,0,0,0,0,0,0,0,0,0,0,0,0,0,0,0,0,0,0,0,0,0,0,0,0,0,4732,4732,4140,4732,5520,5520,5520,6624,6624,16560,0,33119,33119,6624,6624,3011,3011,0,0,0,0,0,0,0,0,0,0,0,0,0,0,0,0,0,2548,0,0,0,0,0,0,2760,2760,2760,2366,2366,2366,2548,2548,3011,0,0,3011,2548,2548,2548,2548,2366,2366,2366,2548,2366,3011,3011,3011,2366,2366,2366,2366,2548,2548,2548,2548,2548,2548,2366,2366,2366,2366,2366,2366,2366,2366,2366,2366,2366,2366,2366,2366,2366,2366,2366,2366,2366,2366,2366,2366,2366,2366,2208,2366,2366,2366,2366,2366,2366,2366,2366,2366,2366,2366,2366,2208,2070,2070,2070,2070,2208,2208,2208,2208,2208,2208,2208,2208,2208,2208,2208,2208,2070,2208,2208,2208,2208,2208,2208,2208,2208,2208,2208,2366,2548,2760,3011,3312,3312,3312,2366,2366,2208,2208,2208,2208,2208,2208,2208
676,676,676,676,676,676,676,676,676,676,676,676,676,676,676,676,690,690,690,690,690,690,690,690,690,690,690,690,690,705,705,705,705,705,705,705,705,705,705,705,705,720,720,720,720,720,720,720,720,720,720,720,720,720,720,720,720,720,736,736,736,736,736,736,736,736,736,736,736,736,736,736,753,753,753,753,753,753,753,753,753,753,753,753,753,753,753,753,771,771,771,771,771,771,771,771,771,771,771,771,771,771,771,771,771,789,789,789,789,789,789,789,789,789,789,789,789,808,808,808,808,808,808,808,808,808,808,808,808,808,808,808,808,808,828,828,828,828,828,828,828,828,828,828,828,828,828,828,828,828,828,828,850,850,850,850,850,850,850,850,850,850,850,850,850,850,850,850,872,872,872,872,872,872,872,872,872,872,872,872,872,872,872,872,872,872,872,872,872,872,872,872,872,872,872,872,872,872,872,872,872,872,872,872,872,872,0,0,0,0,0,0,0,0,0,0,0,0,0,0,0,0,0,0,0,0,0,0,0,0,0,0,0,0,0,0,1227,1227,1183,1183,1183,1183,1183,1183,1183,1183,1183,1183,1183,1183,1183,1183,1183,1183,0,0,0,0,0,0,0,0,0,0,0,0,0,1183,1143,1143,1143,1143,1143,1143,1143,1143,1143,1143,1143,1143,1143,1183,1183,1183,1183,1183,1183,1183,1183,1183,1183,1183,1183,1183,1183,1183,1183,1183,1183,1183,1183,1183,1183,1183,1183,1227,1227,1227,1183,1183,828,828,828,828,828,828,828,828,828,828,828,828,828,828,828,828,828,828,828,828,828,828,828,828,828,828,0,0,828,828,850,828,0,0,0,0,0,0,0,0,0,0,0,0,0,828,828,828,828,828,808,808,808,808,789,789,789,789,771,771,771,771,771,771,771,771,789,808,808,0,0,850,872,872,872,872,850,808,808,808,808,808,808,808,808,808,808,808,808,808,808,808,808,808,808,808,828,828,828,850,850,850,850,850,850,850,850,872,850,0,0,0,0,0,0,0,0,0,0,0,0,1840,1840,1840,1840,1840,1840,1840,1840,1840,1840,1840,1840,1840,1840,0,0,0,0,0,1656,0,0,0,0,0,0,0,0,0,0,0,0,0,0,0,0,0,0,0,0,0,0,0,0,0,0,0,0,0,0,0,0,0,0,0,4732,4732,5520,5520,5520,6624,6624,16560,0,0,33119,6624,6624,3011,3011,0,0,0,0,0,0,0,0,0,0,0,0,0,0,0,0,0,2548,0,2548,2548,2548,0,2366,2760,2760,2760,2366,2366,2366,2366,2548,2548,0,0,3011,2548,2548,2366,2366,2366,2366,2366,2366,2366,2548,2548,2366,2366,2366,2366,2366,2548,2548,2548,2548,2548,2548,2366,2366,2366,2366,2366,2366,2366,2366,2366,2366,2366,2366,2366,2366,2366,2366,2366,2366,2366,2366,2366,2366,2366,2366,2208,2208,2366,2366,2366,2366,2366,2366,2366,2366,2366,2208,2208,2208,2208,2070,2208,2208,2208,2208,2208,2208,2208,2208,2208,2208,2208,2208,2208,2208,2070,2208,2208,2208,2208,2208,2208,2208,2208,2208,2208,2366,2548,2760,3011,3312,3312,3312,2366,2366,2208,2208,2208,2208,2208,2208,2208
676,676,676,676,676,676,676,676,676,676,676,676,676,676,676,676,676,690,690,690,690,690,690,690,690,690,690,690,705,705,705,705,705,705,705,705,705,705,705,705,705,720,720,720,720,720,720,720,720,720,720,720,720,720,720,720,720,736,736,736,736,736,736,736,736,736,736,736,736,736,736,736,753,753,753,753,753,753,753,753,753,753,753,753,753,753,753,753,753,771,771,771,771,771,771,771,771,771,771,771,771,771,771,771,771,789,789,789,789,789,789,789,789,789,789,789,808,808,808,808,808,808,808,808,808,808,808,808,808,808,808,808,808,808,808,828,828,828,828,828,828,828,828,828,828,828,828,828,828,828,828,850,850,850,850,850,850,850,850,850,850,850,850,872,872,872,872,872,872,872,872,872,872,872,872,872,872,872,872,872,872,872,872,872,872,872,872,872,872,872,872,872,872,872,872,872,872,872,872,872,872,872,872,872,872,872,0,0,0,0,0,0,0,0,0,0,0,0,0,0,0,0,0,0,0,0,0,0,0,0,0,0,0,0,0,0,1227,1183,1183,1183,1183,1183,1183,1183,1183,1183,1183,1183,1183,1183,1183,1183,1183,1183,0,0,0,0,0,0,0,0,0,0,0,0,0,0,1143,1143,1143,1143,1143,1143,1143,1143,1143,1143,1143,1143,1143,1183,1183,1183,1183,1183,1183,1183,1183,1183,1183,1183,1183,1183,1183,1183,1183,1183,1183,1183,1183,1183,1183,1183,1183,1183,1183,1227,1183,1183,828,828,828,828,828,828,828,828,828,828,828,828,828,828,828,828,828,828,828,828,828,828,808,808,828,828,0,0,828,828,850,850,0,0,0,0,0,0,0,0,0,0,1069,0,828,828,808,808,808,808,808,808,789,789,771,771,771,771,771,771,771,771,771,771,771,1949,0,0,0,0,0,872,872,872,872,872,872,850,850,850,850,850,808,808,808,808,808,808,808,808,1380,1744,1744,808,808,808,828,828,850,850,850,850,850,850,850,850,850,850,850,850,0,0,0,0,0,0,0,0,0,0,1840,1840,1840,1840,1840,1840,1840,1840,1840,1840,1840,1840,1840,1840,1840,1949,0,0,0,1744,1744,1744,0,0,0,0,0,0,0,0,0,0,0,0,0,0,0,0,0,0,0,0,0,0,0,0,0,0,0,0,0,0,0,0,0,0,0,0,5520,5520,6624,6624,6624,16560,0,16560,16560,6624,6624,3011,3011,0,0,0,0,0,0,0,0,0,0,0,0,0,0,0,0,0,0,0,0,2548,2548,2760,2366,2760,2760,2760,2366,2366,2366,2366,2548,2548,0,0,3011,2548,2548,2366,2366,2366,2366,2366,2366,2366,2548,2548,2548,2366,2366,2366,2366,2366,2548,2548,2548,2548,2548,2366,2366,2366,2366,2366,2366,2366,2366,2366,2366,2366,2366,2366,2366,2366,2366,2366,2366,2366,2366,2366,2208,2208,2208,2208,2208,2208,2366,2366,2366,2366,2366,2366,2366,2366,2208,2208,2208,2208,2070,2208,2208,2208,2208,2208,2208,2208,2208,2208,2208,2208,2208,2208,2208,2070,2070,2208,2208,2208,2208,2208,2208,2208,2208,2208,2366,2548,2760,3011,3312,3312,3312,2366,2208,2208,2208,2208,2208,2208,2208,2208
676,676,676,676,676,676,676,676,676,676,676,676,676,676,676,676,690,690,690,690,690,690,690,690,690,690,690,690,705,705,705,705,705,705,705,705,705,705,705,705,705,720,720,720,720,720,720,720,720,720,720,720,720,720,720,720,736,736,736,736,736,736,736,736,736,736,736,736,736,736,736,736,753,736,753,753,753,753,753,753,753,753,753,753,753,753,753,753,771,771,771,771,771,771,771,771,771,771,771,771,771,771,771,771,771,771,771,789,789,789,789,789,789,789,789,789,808,808,808,808,808,808,808,808,808,808,808,808,808,808,808,808,808,808,808,828,828,828,828,828,828,828,828,828,828,828,828,828,828,850,850,850,850,850,850,850,850,850,850,850,850,850,850,872,872,872,872,872,872,872,872,872,872,872,872,872,872,872,872,872,872,872,872,872,872,872,872,872,872,872,872,872,872,872,872,872,872,872,872,872,872,872,872,872,872,872,0,0,0,0,0,0,0,0,0,0,0,0,0,0,0,0,0,0,0,0,0,0,0,0,0,0,0,0,0,0,1227,1183,1183,1183,1183,1183,1183,1183,1183,1183,1183,1183,1183,1183,1183,1183,1183,1183,0,0,0,0,0,0,0,0,0,0,0,0,1183,1183,1143,1143,1143,1143,1143,1143,1143,1143,1143,1143,1143,1143,1143,1183,1183,1183,1183,1183,1183,1183,1183,1183,1183,1183,1183,1183,1183,1183,1183,1183,1183,1183,1183,1183,1183,1183,1183,1183,1183,1227,1183,1183,828,828,828,828,828,828,828,828,828,828,828,828,828,828,828,828,828,828,828,828,828,828,808,808,828,920,920,0,920,828,920,920,0,0,0,0,0,0,0,0,0,1069,808,808,808,808,808,808,808,789,789,789,789,771,771,771,771,771,771,771,771,771,771,771,1656,0,0,0,0,808,808,808,850,850,850,850,850,850,850,850,850,0,850,808,808,808,789,808,0,0,0,0,0,0,1744,808,808,828,850,850,850,850,850,850,850,850,0,1069,850,1069,0,0,0,0,0,0,0,0,0,0,1840,1840,1840,1840,1840,1840,1840,1840,1840,1840,1840,1840,1840,1840,1949,0,0,1949,1744,1744,1744,0,0,0,0,0,0,0,0,0,0,0,0,0,0,0,0,0,0,0,0,0,0,0,0,0,4732,5520,5520,0,0,0,0,0,0,0,0,4732,5520,5520,5520,6624,16560,16560,0,16560,16560,6624,6624,3011,3011,0,0,0,0,0,0,0,0,0,0,0,0,0,0,0,0,0,0,0,2548,2548,2548,2760,2366,2760,2760,2760,2366,2366,2366,2548,2548,2548,2548,0,2548,2548,2548,2548,2548,2366,2366,2366,2548,2548,2548,2548,2548,2366,2366,2366,2366,2548,2548,2548,2548,2548,2548,2548,2366,2366,2366,2366,2366,2366,2366,2366,2366,2366,2366,2366,2366,2366,2366,2366,2366,2366,2366,2366,2208,2208,2208,2208,2208,2208,2366,2366,2366,2366,2366,2208,2208,2366,2208,2208,2208,2208,2070,2208,2208,2208,2208,2208,2208,2208,2208,2208,2208,2208,2208,2208,2208,2070,2070,2208,2208,2208,2208,2208,2208,2208,2208,2208,2366,2548,2760,3011,3312,3312,3312,2208,2208,2208,2208,2208,2208,2208,2208,2208
676,676,663,676,676,676,676,676,676,676,676,676,676,676,676,676,690,690,690,690,690,690,690,690,690,690,690,690,705,705,705,705,705,705,705,705,705,705,705,705,705,705,720,720,720,720,720,720,720,720,720,720,720,720,720,720,720,736,736,736,736,736,736,736,736,736,736,736,736,736,753,753,753,753,753,753,753,753,753,753,753,753,753,753,753,753,753,771,771,771,771,771,771,771,771,771,771,771,771,771,771,771,789,771,771,771,771,771,789,789,789,789,789,789,789,789,808,808,808,808,808,808,808,808,808,808,808,808,808,808,808,808,808,808,808,828,828,828,828,828,828,828,828,828,828,828,828,828,828,850,850,850,850,850,850,850,850,850,850,850,850,850,850,872,872,872,872,872,872,872,872,872,872,872,872,872,872,872,872,872,896,896,896,896,872,872,872,872,872,872,872,872,872,872,872,872,872,872,872,872,872,896,872,872,896,896,896,0,0,0,0,0,0,0,0,0,0,0,0,0,0,0,0,0,0,0,0,0,0,0,0,0,0,0,0,0,0,1227,1183,1183,1183,1183,1183,1183,1183,1227,1227,1183,1183,1183,1183,1183,1183,1183,0,0,0,0,0,0,0,0,0,0,0,0,1183,1143,1143,1143,1143,1143,1143,1143,1143,1143,1143,1143,1143,1143,1143,1183,1183,1183,1183,1183,1183,1183,1183,1183,1183,1183,1183,1183,1183,1183,1183,1183,1183,1183,1183,1183,1183,1183,1227,1227,1227,1227,1227,1227,1183,1227,828,828,828,828,828,828,828,828,828,828,828,828,828,828,828,828,828,828,828,828,808,808,828,920,920,0,920,920,920,920,0,0,0,0,0,0,1069,1035,808,808,808,808,808,808,808,808,789,789,789,771,771,771,771,771,771,771,771,771,771,771,771,1227,1744,0,0,0,850,789,789,789,789,789,789,789,789,808,808,850,0,0,0,0,0,0,736,0,0,0,0,0,0,0,1744,808,808,808,828,850,850,850,850,850,850,0,0,0,0,0,0,0,0,0,0,0,0,0,0,1840,1840,1840,1840,1840,1840,1840,1840,1840,1840,1840,1840,1840,1840,1840,1949,0,0,1949,1744,1744,1744,1744,0,0,0,0,0,0,0,0,0,0,0,0,0,0,0,0,0,0,0,0,0,0,0,0,2760,2760,5520,0,0,0,0,0,0,0,0,0,5520,5520,6624,6624,16560,16560,33119,16560,16560,6624,6624,3011,3011,2760,0,0,0,0,0,0,0,0,0,0,0,0,0,0,0,0,0,0,0,2548,2548,0,0,0,0,2760,2548,2548,2548,2548,2548,2548,2548,2548,2548,2548,2548,2548,2548,2366,2366,2548,2548,2548,2548,2548,2548,2548,2366,2366,2548,2548,2548,2548,2548,2548,2548,2548,2366,2366,2366,2366,2366,2366,2366,2366,2366,2366,2366,2366,2366,2366,2366,2366,2366,2366,2366,2366,2208,2366,2208,2208,2208,2366,2366,2366,2366,2366,2366,2366,2208,2366,2208,2208,2208,2208,2070,2208,2208,2208,2208,2208,2208,2208,2208,2208,2208,2208,2208,2208,2208,2070,2208,2208,2208,2208,2208,2208,2208,2208,2208,2208,2366,2548,2760,3011,3312,3312,3312,3680,2208,2208,2208,2208,2208,2208,2208,2208
663,663,663,663,663,663,676,676,676,676,676,676,676,676,676,676,690,690,690,690,690,690,690,690,690,690,690,690,705,705,705,705,705,705,705,705,705,705,705,705,705,720,720,720,720,720,720,720,720,720,720,720,720,720,720,720,736,736,736,736,736,736,736,736,736,736,736,736,736,736,736,736,753,753,753,753,753,753,753,753,753,753,753,753,753,771,771,771,771,771,771,771,771,771,771,771,771,771,771,771,771,771,789,789,771,771,771,771,789,789,789,789,789,789,789,789,808,808,808,808,808,808,808,808,808,808,808,808,808,808,808,808,808,808,808,828,828,828,828,828,828,828,828,828,828,828,828,828,828,850,850,850,850,850,850,850,850,850,850,850,850,850,850,850,850,872,872,872,872,872,872,872,872,872,872,872,872,872,872,872,896,896,896,896,896,896,872,872,872,872,872,872,896,872,872,872,872,872,872,872,872,872,872,872,896,896,896,0,0,0,0,0,0,0,0,0,0,0,0,0,0,0,0,0,0,0,0,0,0,0,0,0,0,0,0,0,0,0,1227,1183,1183,1183,1183,1227,1227,1227,1227,1227,1183,1183,1183,1183,1183,1183,0,0,0,0,0,0,0,0,0,1104,1104,1104,1104,1143,1143,1143,1143,1143,1143,1143,1143,1143,1143,1143,1143,1143,1143,1143,1183,1183,1183,1227,1227,1183,1183,1183,1183,1183,1183,1183,1183,1183,1183,1183,1183,1183,1183,1183,1183,1183,1227,1227,1227,1227,1227,1227,1227,1227,1183,828,828,828,828,828,828,828,828,828,828,828,828,828,828,1069,828,828,828,828,808,808,920,920,920,920,920,920,920,0,0,0,0,0,0,0,1035,808,808,789,789,789,789,808,789,789,789,789,771,771,771,771,753,753,753,753,753,753,753,771,771,1656,1744,0,1949,1656,789,789,789,789,789,789,789,789,789,789,789,850,0,0,0,0,0,736,736,736,0,0,0,0,0,0,1744,808,808,808,828,0,0,1656,850,0,0,0,0,0,0,0,0,0,0,0,0,0,0,0,0,1840,1840,1840,1840,1840,1840,1840,1840,1840,1840,1840,1840,1840,1840,1949,1949,0,0,1949,0,0,1744,1744,0,1744,1744,0,0,0,0,0,0,0,0,0,0,0,0,0,0,0,0,0,0,0,0,1744,1744,1744,1949,0,0,0,0,0,0,0,0,0,5520,6624,6624,8280,16560,16560,16560,16560,16560,6624,6624,3011,2760,2760,0,0,0,0,0,0,0,0,0,0,0,0,0,0,0,0,0,0,2548,2548,2548,0,0,0,0,2760,2548,2548,2548,2548,2548,2548,2548,2548,2548,2548,2548,2548,2548,2548,2548,2548,2548,2548,2548,2548,2548,2548,2366,2366,2548,2548,2548,2548,2548,2548,2548,2548,2366,2366,2366,2366,2366,2366,2366,2548,2548,2548,2366,2366,2366,2366,2366,2366,2366,2366,2366,0,0,0,2366,2366,2208,2366,2366,2366,2366,2366,2366,2366,2366,2366,2208,2208,2208,2208,2070,2208,2208,2208,2208,2208,2208,2208,2208,2208,2208,2208,2208,2208,2208,2070,2208,2208,2208,2208,2208,2208,2208,2208,2208,2208,2366,2548,2760,3011,3312,3312,3312,3680,2208,2208,2208,2208,2208,2208,2208,2208
663,663,663,663,663,663,676,676,676,676,676,676,676,676,676,676,690,690,690,690,690,690,690,690,690,690,690,690,690,705,705,705,705,705,705,705,705,705,705,705,705,705,720,720,720,720,720,720,720,720,720,720,720,720,720,720,720,736,736,736,736,736,736,736,736,736,736,736,736,736,736,736,736,736,753,753,753,753,753,753,753,753,753,753,771,771,771,771,771,771,771,771,771,771,771,771,771,771,771,771,771,789,789,789,771,771,771,771,789,789,789,789,789,789,789,789,808,808,808,808,808,808,808,808,808,808,808,808,808,808,808,808,808,808,828,828,828,828,828,828,828,828,828,828,828,828,828,828,850,850,850,850,850,850,850,850,850,850,850,850,850,850,850,850,850,872,872,872,872,872,872,872,872,872,872,872,872,872,872,872,872,872,896,896,896,896,896,872,872,872,872,872,896,872,872,872,872,872,872,872,872,872,872,872,872,896,896,896,0,0,0,0,0,0,0,0,0,0,0,0,0,0,0,0,0,0,0,0,0,0,0,0,0,0,0,0,0,0,1227,1227,1227,1227,1227,1227,0,1227,1227,1227,1183,1183,1183,1183,1183,1183,0,0,0,0,0,0,0,0,1143,1104,1104,1104,1104,1143,1143,1143,1143,1143,1143,1143,1143,1143,1143,1143,1143,1143,1143,1143,1183,1183,1183,1227,1227,1183,1183,1183,1183,1183,1183,1183,1183,1183,1183,1183,1183,1183,1183,1183,1183,1183,1227,1227,1227,1227,1227,1227,1227,1227,1227,828,828,828,828,828,828,828,828,828,828,828,828,828,828,1069,828,828,828,828,808,808,920,920,920,920,920,920,920,0,0,0,0,0,0,1035,808,789,789,789,789,789,789,789,789,789,789,771,771,771,753,753,753,753,753,753,753,753,753,753,1227,1744,1744,1949,1656,789,789,789,789,789,789,789,789,789,789,789,789,789,0,0,0,789,736,736,736,736,0,0,0,0,0,0,808,808,808,808,828,850,850,850,850,850,0,0,0,0,0,0,0,0,0,0,0,0,0,0,0,1840,1840,1840,1840,1840,1840,1840,1840,1840,1840,1840,1840,1840,1840,1949,1949,0,0,0,0,0,1744,1744,1744,1744,1744,0,0,0,0,0,0,0,0,0,0,0,0,0,0,0,0,0,0,0,0,0,0,1949,1949,0,0,0,0,0,0,0,0,4732,5520,6624,6624,8280,16560,16560,33119,33119,16560,6624,6624,3011,2760,2760,0,0,0,0,0,0,0,0,0,0,0,0,0,0,0,0,0,0,2548,2548,2548,0,0,0,0,2760,2548,2548,2548,2548,2548,2548,2548,2548,2548,2548,2548,2548,2548,2548,2548,2548,2548,2548,2548,2548,2548,2548,2548,2548,2548,2548,2548,2548,2548,2548,2548,2548,2366,2366,2366,2366,2366,2366,2548,2548,2548,2548,2366,2366,2366,2366,2366,2366,2366,2366,0,0,0,0,0,0,2366,2366,2366,2366,2366,2366,2366,2366,2208,2366,2366,2366,2208,2070,2070,2070,2070,2208,2208,2208,2208,2208,2208,2208,2208,2208,2208,2208,2208,2070,2208,2208,2208,2208,2208,2208,2208,2208,2208,2208,2366,2548,2760,3011,3312,3312,3680,3680,2208,2208,2208,2208,2208,2208,2208,2208
663,663,663,663,663,676,676,676,676,676,676,676,676,676,676,676,690,690,690,690,690,690,690,690,690,690,690,690,705,705,705,705,705,705,705,705,705,705,705,705,705,705,720,720,720,720,720,720,720,720,720,720,720,720,720,720,720,736,736,736,736,736,736,736,736,736,736,736,736,736,736,736,736,736,753,753,753,753,753,753,753,753,753,753,771,771,771,771,771,771,771,771,771,771,771,771,771,771,771,771,771,789,789,789,789,771,771,789,789,789,789,789,789,789,789,789,808,808,808,808,808,808,808,808,808,808,808,808,808,808,808,808,808,808,828,828,828,828,828,828,828,828,828,828,828,828,828,828,828,828,850,850,850,850,850,850,850,850,850,850,850,850,850,850,850,850,872,872,872,872,872,872,872,872,872,872,872,872,872,872,872,896,896,896,896,896,896,872,872,872,872,872,896,872,872,872,872,872,872,872,872,872,872,872,872,872,896,896,0,0,0,0,0,0,0,0,0,0,0,0,0,0,0,0,0,0,0,0,0,0,0,0,0,0,0,0,0,0,1227,1227,1227,1227,1227,1227,0,1227,1227,1227,1183,1183,1183,1183,1183,1183,1183,0,0,0,0,0,0,0,1143,1143,1143,1104,1104,1143,1143,1143,1143,1143,1143,1143,1143,1143,1143,1143,1143,1143,1143,1143,1143,1183,1183,1227,1227,1183,1183,1183,1143,1143,1143,1183,1143,1183,1183,1183,1183,1183,1183,1183,1183,1183,1227,1227,1227,1227,1227,1227,1227,1274,1227,828,828,828,828,828,828,828,828,828,828,828,828,828,828,1069,828,828,828,828,808,808,920,920,920,920,920,920,920,920,0,0,0,0,1035,808,789,789,789,789,789,789,789,789,789,789,771,771,771,753,753,753,753,753,753,753,753,753,753,753,1227,1656,1656,1656,850,789,789,789,789,789,789,789,789,789,789,789,789,789,789,789,789,789,771,771,736,771,0,0,0,0,0,0,808,808,808,828,828,850,850,850,850,850,850,1069,0,0,0,1069,0,0,0,0,0,0,0,0,0,0,1840,1840,1840,1840,1840,1840,1840,1840,1840,1840,1840,1840,1840,1949,0,0,0,0,0,0,0,1949,0,0,0,0,0,0,0,0,0,0,0,0,0,0,0,0,0,0,0,0,0,0,0,0,0,1949,1949,8280,0,0,0,0,0,0,0,4732,5520,6624,6624,6624,16560,16560,0,0,33119,6624,0,3011,2760,2760,2760,2760,0,0,0,0,0,0,0,0,0,0,0,0,0,0,0,2548,2548,2548,2548,2548,2548,2760,2760,2548,2548,2548,2548,2548,2548,2548,2548,2548,2548,2548,2548,2548,2548,2548,2548,2548,2548,2548,2548,2548,2548,2548,2548,2548,2548,2548,2548,2548,2548,2548,2548,2548,2366,2366,2366,2366,2366,2366,2548,2548,2548,2548,2366,2366,2366,2366,2366,2366,2366,2366,2548,0,0,0,0,0,2366,2366,2366,2366,2366,2366,2366,2208,2208,2366,2366,2366,2208,2070,2070,2070,2070,2208,2208,2208,2208,2208,2208,2208,2208,2208,2208,2208,2208,2070,2208,2208,2208,2208,2208,2208,2208,2208,2208,2208,2366,2548,2760,3011,3312,3312,3680,3680,2208,2208,2208,2208,2208,2208,2208,2208
663,663,663,663,676,676,676,676,676,676,676,676,676,676,676,676,690,690,690,690,690,690,690,690,690,690,690,690,705,705,705,705,705,705,705,705,705,705,705,705,705,705,705,720,720,720,720,720,720,720,720,720,720,720,720,720,720,720,736,736,736,736,736,736,736,736,736,736,736,736,736,736,753,753,753,753,753,753,753,753,753,753,753,753,771,771,771,771,771,771,771,771,771,771,771,771,771,771,771,771,771,789,789,789,789,789,789,789,789,789,789,789,789,789,789,808,808,808,808,808,808,808,808,808,808,808,808,808,808,808,808,808,808,808,828,828,828,828,828,828,828,828,828,828,828,828,828,828,828,828,828,850,850,850,850,850,850,850,850,850,850,850,850,850,850,850,872,872,872,872,872,872,872,872,872,872,872,872,872,872,872,872,896,896,872,872,872,872,872,872,872,872,896,872,872,872,872,872,872,872,872,872,872,872,872,872,872,872,0,0,0,0,0,0,0,0,0,0,0,0,0,0,0,0,0,0,0,0,0,0,0,0,0,0,0,0,0,0,1227,1227,1227,1227,1227,1227,1227,1227,1227,1183,1183,1183,1183,1183,1183,1183,1183,1227,0,0,0,0,0,0,1143,1143,1143,1143,1143,1143,1143,1143,1143,1143,1143,1143,1143,1143,1143,1143,1143,1143,1143,1143,1183,1183,1183,1227,1227,1183,1183,1183,1143,1143,1143,1183,1143,1183,1183,1183,1183,1183,1183,1183,1183,1183,1183,1227,1227,1227,1227,1227,1227,1227,1227,1227,828,828,828,828,828,828,828,828,828,828,828,828,828,1069,828,828,828,1744,808,808,920,0,0,0,920,920,0,0,0,0,0,0,808,789,789,789,789,789,789,789,789,789,789,789,771,771,753,753,753,753,753,753,753,753,753,753,753,1227,1949,1744,1227,1227,789,789,789,789,789,789,789,789,789,789,789,789,789,789,789,789,789,789,771,771,771,771,771,850,0,0,850,789,808,808,808,828,828,850,850,850,850,850,872,0,0,0,0,850,1840,0,0,0,0,0,0,0,0,1840,1840,1840,1840,1840,1840,1840,1840,1840,1840,1840,1840,1840,1840,1949,1949,0,0,0,0,0,0,0,0,0,0,0,0,0,0,0,0,0,0,0,0,0,0,0,0,0,0,0,0,0,0,0,0,1949,1949,1949,8280,8280,0,0,0,0,0,4732,5520,0,8280,0,0,0,0,0,0,0,0,3011,2760,2760,2760,2760,0,0,0,0,0,0,0,0,0,0,0,0,0,0,2548,2548,2548,2548,2548,2548,2366,2548,2548,2548,2548,2548,2548,2548,2548,2548,2548,2548,2548,2548,2548,2548,2548,2760,2760,2760,2760,2760,2548,2548,2548,2548,2548,2548,2548,2548,2548,2548,2548,2548,2548,2548,2366,2366,2366,2366,2366,2366,2548,2548,2548,2548,2548,2366,2366,2366,2366,2548,2548,2548,0,0,0,0,0,0,2366,2366,2366,2208,2208,2366,2366,2208,2208,2366,2208,2208,2208,2070,2070,2070,2070,2208,2208,2208,2208,2208,2208,2208,2208,2208,2208,2208,2208,2070,2208,2208,2208,2208,2208,2208,2208,2208,2208,2208,2366,2548,2760,3011,3312,3312,3680,3680,2208,2208,2208,2208,2208,2208,2208,2208
663,663,663,676,676,676,676,676,676,676,676,676,676,676,676,676,690,690,690,690,690,690,690,690,690,690,690,690,705,705,705,705,705,705,705,705,705,705,705,705,705,705,705,720,720,720,720,720,720,720,720,720,720,720,720,720,720,720,736,736,736,736,736,736,736,736,736,736,736,736,753,753,753,753,753,753,753,753,753,753,753,753,753,753,753,771,771,771,771,771,771,771,771,771,771,771,771,771,771,771,771,789,789,789,789,789,789,789,789,789,789,789,789,789,789,808,808,808,808,808,808,808,808,808,808,808,808,808,808,808,808,808,808,808,828,828,828,828,828,828,828,828,828,828,828,828,828,828,828,828,828,850,850,850,850,850,850,850,850,850,850,850,850,850,850,850,872,872,872,872,872,872,872,872,872,872,872,872,872,872,872,872,896,896,896,872,872,872,872,872,872,896,896,872,872,872,872,872,872,872,872,872,872,872,872,872,872,872,896,0,0,0,0,0,0,0,0,0,0,0,0,0,0,0,0,0,0,0,0,0,0,0,0,0,0,0,1227,1183,1183,1183,1183,1183,1183,1183,1183,1183,1183,1183,1183,1183,1143,1183,1183,1183,1183,1183,1183,1183,0,0,0,1143,1143,1143,1143,1143,1143,1143,1143,1143,1143,1143,1143,1143,1143,1143,1143,1143,1143,1143,1143,1143,1183,1183,1183,1183,1183,1183,1143,1143,1143,1143,1143,1143,1143,1183,1183,1183,1183,1183,1183,1183,1183,1183,1183,1183,1183,1227,1227,1227,1227,1274,1274,1227,828,828,828,828,828,828,828,828,828,828,828,828,828,1069,828,828,828,1744,828,828,0,0,0,0,920,0,0,0,0,0,0,0,789,789,789,789,789,789,789,789,789,789,789,789,771,753,753,736,736,736,736,736,736,736,753,753,1183,1227,0,1656,1227,789,789,789,789,789,789,789,789,789,789,789,789,789,789,789,789,789,771,771,771,771,771,771,771,771,771,771,789,789,789,808,808,828,850,850,850,850,850,850,0,0,0,0,1069,850,850,1840,0,0,0,0,0,0,0,0,1840,1840,1840,1840,1840,1840,1840,1840,1840,1840,1840,1840,1840,1949,0,0,0,0,0,0,0,0,0,0,0,0,0,0,0,0,0,0,0,0,0,0,0,0,0,0,0,0,0,0,0,0,0,1949,1949,1949,1949,0,0,0,0,0,0,4732,0,0,0,0,0,0,0,0,0,0,0,3011,2760,2760,0,0,0,0,0,0,2760,0,0,0,0,0,0,0,0,0,2548,2548,2548,2548,2548,2548,2366,2548,2548,2548,2366,2548,2548,2548,2548,2548,2548,2548,2548,2548,2548,2548,2548,2760,2760,2760,2760,2760,2548,2548,2548,2548,2548,2548,2548,2548,2548,2548,2548,2548,2548,2548,2366,2366,2366,2366,2366,2366,2548,2548,2548,2548,2548,2366,2366,2366,2366,2548,2548,2548,0,0,0,0,0,2548,2366,2366,2366,2208,2208,2208,2208,2208,2208,2366,2208,2208,2208,2070,2070,2070,2070,2208,2208,2208,2208,2208,2208,2208,2208,2208,2208,2208,2070,2070,2070,2070,2070,2208,2208,2070,2070,2070,2070,2208,2366,2548,2760,3011,3312,3312,3312,2208,2208,2208,2208,2208,2208,2208,2208,2208
663,663,663,676,676,676,676,676,676,676,676,676,676,676,676,676,690,690,690,690,690,690,690,690,690,690,690,690,690,705,705,705,705,705,705,705,705,705,705,705,705,705,705,705,720,720,720,720,720,720,720,720,720,720,720,720,720,720,720,736,736,736,736,736,736,736,736,736,736,753,753,753,753,753,753,753,753,753,753,753,753,753,753,753,753,771,753,771,771,771,771,771,771,771,771,771,771,771,771,771,771,789,789,789,789,789,789,789,789,789,789,789,789,789,789,789,808,808,808,808,808,808,808,808,808,808,808,808,808,808,808,808,808,828,828,828,828,828,828,828,828,828,828,828,828,828,828,828,828,828,828,850,850,850,850,850,850,850,850,850,850,850,850,850,850,850,872,872,872,872,872,872,872,872,872,872,872,872,872,872,872,896,896,896,896,896,896,872,872,896,896,896,896,896,896,896,872,872,872,872,872,872,872,872,872,872,872,896,896,0,0,0,0,0,0,0,0,0,0,0,0,0,0,0,0,0,0,0,0,0,0,0,0,0,0,1227,1183,1183,1143,1183,1143,1143,1183,1183,1183,1183,1183,1183,1183,1183,1183,1183,1183,1183,1183,1183,1183,1183,0,0,0,0,1143,1143,1143,1143,1143,1143,1143,1143,1143,1143,1143,1143,1143,1143,1143,1143,1143,1143,1143,1183,1183,1183,1183,1183,1183,1183,1183,1183,1143,1143,1143,1183,1143,1183,1183,1183,1183,1183,1183,1183,1183,1183,1183,1183,1183,1227,1227,1227,1227,1227,0,1227,828,828,828,828,828,828,828,828,828,828,828,828,828,828,828,828,828,828,828,872,0,0,0,0,0,0,0,0,0,0,0,789,789,789,789,789,789,789,789,789,789,789,789,789,771,753,753,736,736,736,736,736,736,736,736,753,1227,0,0,1744,808,789,789,789,789,789,789,771,771,771,771,771,789,789,789,789,771,771,771,771,771,771,771,771,771,771,771,771,771,789,789,789,808,828,850,850,850,850,850,850,0,0,0,0,1069,850,850,1840,0,0,0,0,0,0,0,0,1840,1840,1840,1840,1840,1840,1840,1840,1840,1840,1840,1840,1840,1949,0,0,0,0,0,0,0,1949,0,0,0,0,0,0,0,0,0,0,0,0,0,0,0,0,0,0,0,0,0,0,0,0,0,0,0,0,0,0,0,0,0,0,0,4732,5520,0,8280,8280,0,0,0,0,0,0,0,3011,2760,2760,0,0,0,0,0,0,2760,0,2760,2760,0,0,0,0,0,0,2548,2548,2548,2548,2366,2366,2366,2548,2548,2548,2366,2548,2548,2548,2548,2548,2548,2548,2548,2548,2548,2548,2548,2760,2760,2760,2548,2548,2548,2548,2548,2548,2548,2548,2548,2548,2548,2548,2548,2548,2548,2548,2548,2366,2366,2366,2366,2366,2548,2548,2548,2548,2548,2366,2366,2548,2548,2548,2548,2548,2548,0,2548,2548,2548,2548,2366,2366,2208,2208,2208,2366,2366,2208,2208,2366,2366,2366,2208,2070,2070,2070,2070,2070,2208,2208,2208,2208,2208,2208,2208,2208,2208,2208,2070,2070,2070,2070,2070,2208,2208,2070,2070,2070,2070,2208,2366,2548,2760,3011,3312,3312,3312,2208,2208,2070,2070,2070,2070,2070,2070,2070
663,663,663,676,676,676,676,676,676,676,676,676,676,676,676,676,690,690,690,690,690,690,690,690,690,690,690,690,690,705,705,705,705,705,705,705,705,705,705,705,705,705,705,705,720,720,720,720,720,720,720,720,720,720,720,720,720,720,720,720,736,736,736,736,736,736,736,736,753,753,753,753,753,753,753,753,753,753,753,753,753,753,753,753,753,753,753,753,771,771,771,771,771,771,771,771,771,771,771,771,771,789,789,789,789,789,789,789,789,789,789,789,789,789,789,789,789,789,808,808,808,808,808,808,808,808,808,808,808,808,808,808,808,828,828,828,828,828,828,828,828,828,828,828,828,828,828,828,828,828,828,850,850,850,850,850,850,850,850,850,850,850,850,850,850,850,872,872,872,872,872,872,872,872,872,872,872,872,872,872,896,896,896,896,896,896,896,896,896,896,896,896,896,896,896,896,896,896,896,896,896,896,896,896,896,896,896,896,896,896,0,0,0,0,0,0,0,0,0,0,0,0,0,0,0,0,0,0,0,0,0,0,0,0,0,1183,1183,1183,1143,1183,1143,1143,1183,1183,1183,1183,1183,1183,1183,1183,1183,1183,1183,1183,1183,1183,1183,1183,1183,0,0,0,0,1143,1143,1143,1143,1143,1143,1143,1143,1143,1143,1143,1143,1143,1143,1143,1143,1143,1183,1183,1183,1183,1183,1183,1183,1183,1183,1183,1183,1143,1143,1183,1143,1183,1183,1183,1183,1183,1183,1183,1183,1183,1183,1183,1183,1183,1227,1227,1227,1227,1227,1227,828,828,828,828,828,828,828,828,828,828,828,828,828,828,828,828,828,828,828,872,0,0,0,0,0,0,0,0,0,0,808,789,789,789,789,789,789,789,789,789,789,789,789,789,753,753,736,736,736,736,736,736,736,736,753,1380,1380,0,0,1227,808,789,789,789,771,771,771,771,771,771,771,771,771,771,771,771,771,771,771,771,771,771,771,771,771,771,771,771,771,771,771,789,789,808,850,850,850,0,0,0,0,0,0,0,1069,850,789,808,850,0,0,0,0,0,0,1840,1840,1840,0,1840,1840,1840,1840,1840,1840,1840,1840,1840,1840,1949,0,0,0,0,0,0,1949,771,789,808,828,0,0,0,0,0,0,0,0,0,0,0,0,0,0,0,0,0,0,0,0,0,0,0,0,0,0,0,0,0,0,3680,4140,4140,4732,6624,8280,11040,0,16560,0,0,0,0,0,3312,3011,2760,0,0,0,0,0,0,0,0,0,0,0,0,0,0,0,0,2548,2548,2548,2548,2548,2548,2366,2548,2548,2548,2548,2548,2548,2548,2548,2548,2548,2548,2548,2548,2548,2548,2548,2548,2548,2548,2548,2548,2548,2548,2548,2548,2548,2548,2548,2548,2548,2548,2548,2548,2548,2548,2548,2366,2366,2366,2366,2366,2548,2548,2548,2548,2548,2366,2366,2548,2548,2548,2548,2548,2548,2548,2548,2548,2548,2548,2366,2366,2366,2208,2366,2366,2366,2366,2366,2366,2366,2366,2208,2070,2070,2070,2070,2208,2208,2208,2208,2208,2208,2208,2208,2208,2208,2208,2070,2070,2070,2070,2070,2070,2070,2070,2070,2070,2208,2208,2366,2548,2760,3011,3312,3312,3312,2208,2208,2070,2070,2070,2070,2070,2070,2070
663,663,663,663,676,676,676,676,676,676,676,676,676,676,676,676,676,690,690,690,690,690,690,690,690,690,690,690,690,690,705,705,705,705,705,705,705,705,705,705,705,705,705,720,720,720,720,720,720,720,720,720,720,720,720,720,720,720,720,720,720,736,736,736,736,736,736,736,736,753,753,753,753,753,753,736,753,753,753,753,753,753,753,753,753,753,753,771,771,771,771,771,771,771,771,771,771,771,771,771,771,789,789,789,789,789,789,789,789,789,789,789,789,789,789,789,789,789,808,808,808,808,808,808,808,808,808,808,808,808,808,808,828,828,828,828,828,828,828,828,828,828,828,828,828,828,828,828,828,828,828,828,850,850,850,850,850,850,850,850,850,850,850,850,850,872,872,872,872,872,872,872,872,872,872,872,872,872,872,896,896,896,896,896,896,896,896,896,896,896,896,896,896,896,896,896,896,896,896,896,896,896,896,896,896,896,896,896,896,896,0,0,0,0,0,0,0,0,0,0,0,0,0,0,0,0,0,0,0,0,0,0,0,0,0,0,0,1183,1183,1183,1183,1183,1183,1183,1183,1183,1183,1183,1183,1183,1183,1183,1183,1183,1183,1183,0,0,0,0,0,0,0,0,1183,1183,1183,1183,1143,1143,1143,1143,1143,1143,1143,1143,1183,1183,1183,1183,1183,1183,1183,1183,1183,1183,1183,1183,1183,1183,1183,1183,1183,1183,1183,1183,1183,1183,1183,1183,1183,1183,1183,1183,1183,1183,1183,1183,1227,1227,1227,1227,1227,1227,1183,828,828,828,828,828,828,828,828,828,828,828,828,828,828,828,828,828,828,850,0,0,0,0,0,0,0,1069,1069,1069,789,789,789,789,789,789,789,789,789,789,789,789,789,789,753,736,736,736,736,736,736,736,736,736,1227,0,0,0,0,1227,789,789,789,771,771,771,771,771,771,771,771,771,771,771,771,771,771,771,771,771,771,771,771,771,771,771,771,771,771,771,771,771,771,789,808,828,828,0,0,0,0,0,0,0,0,850,789,789,808,808,0,0,0,0,808,1840,414,1840,0,0,0,1840,1840,1840,460,1840,1840,1840,1840,1949,0,0,1949,0,850,736,736,753,771,771,808,828,0,0,0,0,0,0,0,0,0,0,3680,1227,0,0,0,0,0,0,0,0,0,0,0,0,0,0,0,0,3312,3312,3680,3680,4732,5520,6624,8280,11040,16560,0,0,0,0,0,3011,2760,2760,0,0,0,0,0,0,0,0,0,3680,0,0,0,0,0,0,2548,2548,2548,2548,2548,2760,2760,2760,2760,2760,2548,2548,2548,2548,2548,2548,2548,2548,2548,2548,2548,2548,2548,2548,2760,2548,2548,2548,2548,2548,2548,2548,2548,2548,2548,2548,2548,2548,2548,2548,2548,2548,2548,2366,2366,2366,2366,2366,2548,2548,2548,2548,2366,2366,2366,2548,2548,2548,2548,2548,2548,2548,2548,2548,2548,2366,2366,2366,2366,2366,2366,2366,2366,2366,2366,2366,2366,2366,2366,2070,2070,2070,2070,2208,2208,2208,2208,2208,2208,2208,2208,2208,2070,2208,2070,2070,2070,2070,2070,2070,2070,2070,2070,2070,2208,2208,2366,2548,2760,3011,3312,3312,3312,2208,2208,2070,2070,2070,2070,2070,2070,2070
663,663,663,663,663,663,663,676,676,676,676,676,676,676,676,676,676,690,690,690,690,690,690,690,690,690,690,690,690,690,705,705,705,705,705,705,705,705,705,705,705,705,720,720,720,720,720,720,720,720,720,720,720,720,720,720,720,720,720,720,720,736,736,736,736,736,736,736,736,736,753,753,753,736,753,736,753,753,753,753,753,753,753,753,753,753,753,771,771,771,771,771,771,771,771,771,771,771,771,771,771,789,789,789,789,789,789,789,789,789,789,789,789,789,789,789,789,789,808,808,808,808,808,808,808,808,808,808,808,808,808,808,828,828,828,828,828,828,828,828,828,828,828,828,828,828,828,828,828,828,828,850,850,850,850,850,850,850,850,850,850,850,850,850,850,872,872,872,872,872,872,872,872,872,872,872,872,872,896,896,896,896,896,896,896,896,896,896,896,896,896,896,896,896,896,896,896,896,896,896,896,896,896,896,896,896,896,896,896,896,896,0,0,0,0,0,0,0,0,0,0,0,0,0,0,0,0,0,0,0,0,0,0,0,0,0,0,1183,1183,1183,1183,1183,1183,1183,1183,1183,1183,1183,1183,1183,1183,1183,1183,1183,1183,1183,0,0,0,0,0,0,0,0,0,1183,1183,1183,1183,1183,1183,1183,1183,1183,1183,1183,1183,1183,1183,1183,1183,1183,1183,1183,1183,1183,1183,1183,1183,1183,1183,1183,1183,1183,1183,1183,1183,1183,1183,1183,1183,1183,1183,1183,1183,1183,1183,1183,1227,1227,1227,1227,1227,1227,1104,828,828,828,828,828,828,828,828,828,828,828,828,828,828,828,828,828,828,850,0,0,0,0,0,0,0,1069,828,789,789,789,789,789,789,789,789,789,789,789,789,789,789,789,753,736,736,736,736,736,736,736,736,736,1380,0,0,0,1227,808,789,789,771,771,771,771,771,771,771,771,753,753,753,753,753,753,753,771,771,771,771,771,771,771,771,771,771,771,771,771,771,771,771,771,771,789,771,0,0,0,0,0,0,0,0,0,2070,789,0,0,0,0,0,0,0,1840,414,1840,0,0,0,1840,1840,1840,460,460,1840,1840,1840,0,0,0,1004,1004,850,736,736,753,771,789,808,828,0,0,0,0,0,0,3680,3680,3680,3680,3680,1227,0,0,0,0,0,0,0,0,0,0,0,0,0,0,0,0,0,3680,3680,3680,4140,5520,6624,6624,8280,16560,16560,0,0,0,3312,3011,2760,2760,0,0,0,0,0,0,0,0,0,0,0,0,0,0,0,0,2548,0,0,0,0,0,0,0,0,2760,2760,2548,2548,2548,2548,2548,2548,2548,2548,2548,2548,2548,2548,2548,2760,2548,2548,2548,2548,2548,2548,2548,2548,2548,2548,2548,2548,2548,2548,2548,2548,2548,2366,2366,2366,2366,2366,2366,2366,2548,2548,2548,2366,2366,2366,2366,2548,2548,2548,2548,2366,2548,2548,2366,2366,2366,2366,2366,2366,2366,2366,2366,2366,2366,2366,2366,2366,2366,2366,2366,2070,2070,2208,2208,2208,2208,2208,2208,2208,2208,2208,2208,2070,2208,2070,2070,2070,2070,2070,2070,2070,2070,2070,2070,2208,2208,2366,2548,2760,3011,3312,3312,3312,2208,2070,2070,2070,2070,2070,2070,2070,2070
663,663,663,663,663,663,663,676,676,676,676,676,676,676,676,676,676,690,690,690,690,690,690,690,690,690,690,690,690,690,705,705,705,705,705,705,705,705,705,705,720,720,720,720,720,720,720,720,720,720,720,720,720,720,720,720,720,720,720,720,736,736,736,736,736,736,736,736,753,736,753,753,753,753,753,753,753,753,753,753,753,753,753,753,753,753,753,771,771,771,771,771,771,771,771,771,771,771,771,771,771,789,789,789,789,789,789,789,789,789,789,789,789,789,789,789,789,789,808,808,808,808,808,808,808,808,808,808,808,808,808,808,828,828,828,828,828,828,828,828,828,828,828,828,828,828,828,828,828,828,850,850,850,850,850,850,850,850,850,850,850,850,850,850,850,872,872,872,872,872,872,872,872,872,872,872,872,872,896,896,896,896,896,896,896,896,896,896,896,896,896,896,896,896,896,920,920,896,896,896,896,896,896,896,896,896,896,896,896,896,920,0,0,0,0,0,0,0,0,0,0,0,0,0,0,0,0,0,0,0,0,0,0,0,0,0,0,1183,1183,1183,1183,1183,1183,1183,1183,1183,1183,1183,1183,1183,1183,1183,1183,1183,1183,1183,0,0,0,0,0,0,0,0,0,0,1183,1183,1183,1183,1183,1183,1183,1183,1183,1183,1183,1183,1183,1183,1183,1183,1183,1183,1183,1183,1183,1183,1183,1183,1183,1183,1183,1183,1183,1183,1183,1183,1183,1183,1183,1183,1183,1183,1183,1183,1183,1183,1183,1227,1227,1227,1227,1227,1104,828,828,828,828,828,828,828,828,828,828,828,828,828,828,828,828,828,828,850,0,0,0,0,0,0,1069,828,789,789,789,789,789,789,789,789,789,789,789,789,789,789,789,789,753,736,736,736,736,736,736,736,736,1380,0,0,0,0,808,789,789,789,771,771,771,771,771,771,753,753,753,753,753,753,753,753,753,753,753,771,771,771,771,771,771,771,771,771,771,771,771,771,771,771,771,771,771,771,789,0,0,0,0,0,0,0,789,789,789,0,0,0,0,0,414,414,414,414,0,0,0,404,404,404,404,460,1840,1840,1840,0,0,0,975,975,850,736,736,753,771,789,808,828,0,0,0,0,0,0,3680,3680,3680,0,0,0,0,0,0,0,0,0,0,0,0,0,0,0,0,0,0,0,0,3680,3680,3680,4140,4732,5520,6624,8280,16560,16560,16560,16560,16560,3680,3312,2760,2760,0,0,0,0,0,0,0,0,0,0,0,0,0,0,0,0,2548,0,0,0,0,0,0,3011,2760,2760,2760,2548,2548,2548,2548,2548,2548,2548,2548,2548,2548,2548,2548,2548,2760,2548,2548,2548,2548,2548,2548,2548,2548,2548,2548,2548,2548,2548,2548,2548,2548,2548,2366,2366,2366,2366,2366,2366,2366,2548,2548,2548,2366,2366,2366,2366,2366,2366,2366,2366,2366,2548,2548,2366,2366,2366,2366,2366,2366,2366,2366,2366,2366,2366,2366,2366,2366,2366,2366,2366,2366,2208,2208,2208,2208,2208,2208,2208,2208,2208,2208,2208,2070,2208,2070,2070,2070,2070,2070,2070,2070,2070,2070,2070,2208,2208,2366,2548,2760,3011,3312,3312,3312,2208,2070,2070,2070,2070,2070,2070,2070,2070
663,663,663,663,663,663,663,676,676,676,676,676,676,676,676,676,676,690,690,690,690,690,690,690,690,690,690,690,690,705,705,705,705,705,705,705,705,705,705,720,720,720,720,720,720,720,720,720,720,720,720,720,736,736,736,736,736,720,720,736,736,736,736,736,736,736,736,736,736,736,753,753,753,753,753,753,753,753,753,753,753,753,753,753,753,753,771,771,771,771,771,771,771,771,771,771,771,771,771,771,771,771,789,789,789,789,789,789,789,789,789,789,789,789,789,789,789,789,808,808,808,808,808,808,808,808,808,808,808,808,808,808,828,828,828,828,828,828,828,828,828,828,828,828,828,828,828,828,828,850,850,850,850,850,850,850,850,850,850,850,850,850,850,850,850,872,872,872,872,872,872,872,872,872,872,872,872,872,872,896,896,896,896,896,896,896,896,896,896,896,920,920,920,920,920,920,920,896,896,872,872,872,872,872,872,872,896,896,896,896,896,896,0,0,0,0,0,0,0,0,0,0,0,0,0,0,0,0,0,0,0,0,0,0,0,0,0,1183,1183,1183,1183,1183,1183,1183,1183,1183,1183,1183,1183,1183,1183,1183,1183,1183,1183,1183,0,0,0,0,0,0,0,0,0,0,1183,1183,1183,1183,1183,1183,1183,1183,1183,1183,1183,1183,1183,1183,1183,1183,1183,1183,1183,1183,1183,1183,1183,1183,1183,1183,1183,1183,1183,1183,1183,1183,1183,1183,1183,1183,1183,1183,1183,1183,1183,1183,1183,1227,1227,1227,1227,1227,1104,828,828,828,828,828,828,828,828,828,828,828,828,1069,828,828,828,828,828,850,0,0,0,0,0,0,1035,808,789,789,789,789,789,789,789,789,789,789,789,789,789,789,789,789,771,736,736,736,736,736,736,736,736,0,0,0,0,789,789,789,789,789,771,771,771,771,771,753,753,753,753,753,753,753,753,753,753,753,753,771,771,1840,0,0,789,789,789,789,771,771,771,771,771,771,771,771,771,771,771,0,0,0,0,0,0,789,789,789,789,789,0,0,0,0,0,0,1840,0,0,0,0,0,404,404,404,460,1840,1840,0,0,0,975,975,975,975,1004,0,771,789,808,828,0,0,0,0,0,0,1004,1004,3680,0,0,0,0,0,0,0,0,0,0,0,0,0,0,0,0,0,0,0,0,0,3680,3680,4140,4140,4732,5520,6624,8280,16560,16560,0,0,0,0,3680,2760,2760,0,0,0,0,0,0,0,0,0,0,0,0,0,0,2208,2070,2208,0,0,0,0,0,0,2760,2760,2760,2760,2548,2548,2548,2548,2548,2760,2548,2548,2548,2548,2548,2760,2760,2760,2760,2760,2548,2548,2548,2548,2366,2366,2366,2548,2548,2548,2548,2548,2548,2548,2548,2366,2366,2366,2366,2366,2366,2366,2548,2548,2548,2366,2366,2366,2366,2366,2366,2366,2366,2366,2366,2366,2366,2366,2366,2366,2366,2366,2366,2366,2366,2366,2366,2366,2366,2366,2366,2366,2366,2366,2208,2208,2208,2208,2208,2208,2208,2208,2208,2208,2208,2070,2208,2070,2070,2070,2070,2070,2070,2070,2070,2070,2070,2208,2208,2366,2548,2760,3011,3312,3312,3312,2208,2208,2070,2070,2070,2070,2070,2070,2070
663,663,663,676,676,676,676,676,676,676,676,676,676,676,676,676,676,690,690,690,690,690,690,690,690,690,690,690,690,705,705,705,705,705,705,705,705,705,705,720,720,720,720,720,720,720,720,720,720,720,720,736,736,736,736,736,736,736,736,736,736,736,736,736,736,736,736,736,736,736,753,753,753,753,753,753,753,753,753,753,753,753,753,753,753,771,771,771,771,771,771,771,771,771,771,771,771,771,771,771,771,771,771,771,789,789,789,789,789,789,789,789,789,789,789,789,789,789,789,808,808,808,808,808,808,808,808,808,808,808,808,808,808,828,828,828,828,828,828,828,828,828,828,828,828,828,828,828,850,850,850,850,850,850,850,850,850,850,850,850,850,850,850,850,850,872,872,872,872,872,872,872,872,872,872,872,872,872,872,896,896,896,896,896,896,896,896,896,896,896,920,920,920,920,920,920,920,896,896,872,872,872,872,872,872,872,872,872,920,920,920,896,0,0,0,0,0,0,0,0,0,0,0,0,0,0,0,0,0,0,0,0,0,0,0,0,0,0,1183,1183,1183,1183,1183,0,1183,1183,1183,1183,1183,1183,1183,1183,1183,1183,1183,0,0,0,0,0,0,0,0,0,0,1183,1183,1183,1183,1183,1183,1183,1183,1183,1183,1183,1183,1183,1183,1183,1183,1183,1183,1183,1183,1183,1183,1183,1183,1183,1183,1183,1183,1183,1183,1183,1183,1183,1183,1183,1183,1183,1183,1183,1183,1183,1183,1183,1183,1227,1227,1227,1380,1227,1104,828,828,828,828,828,828,828,828,828,828,828,828,828,828,828,808,828,808,828,0,0,0,0,0,1035,808,789,789,789,789,789,789,789,789,789,789,771,789,789,789,789,789,789,789,736,736,736,736,736,736,736,736,0,0,789,789,789,789,789,789,771,771,771,771,753,753,753,753,753,753,753,753,753,753,753,753,753,753,753,771,0,0,0,0,789,789,789,789,789,771,771,771,771,771,771,771,771,771,789,0,0,0,0,2070,789,789,789,789,808,0,0,0,0,0,0,0,0,0,0,0,404,400,360,360,360,460,1840,0,0,0,1004,1004,1004,0,0,0,0,0,0,0,0,0,0,0,0,0,1004,1004,1004,0,0,0,0,0,0,0,0,0,0,0,0,0,0,0,0,0,0,0,0,0,0,4140,4140,4732,4732,5520,6624,8280,16560,16560,0,0,0,0,3680,2760,2760,3011,0,0,0,0,0,0,0,0,0,0,0,3680,0,2070,2070,2070,0,0,0,0,0,0,2760,2760,2760,2760,2548,2548,2548,2548,2548,2760,2548,2548,2548,2548,2548,2760,2760,2760,2760,2760,2760,2760,2760,2548,2548,2548,2548,2548,2548,2548,2548,2548,2548,2548,2548,2366,2366,2366,2366,2366,2366,2366,2548,2548,2548,2366,2366,2366,2366,2366,2366,2366,2366,2366,2366,2366,2366,2366,2366,2366,2366,2366,2366,2366,2366,2366,2366,2366,2366,2366,2366,2366,2366,2208,2208,2208,2208,2208,2208,2208,2208,2208,2208,2208,2208,2070,2208,2070,2070,2070,2070,2070,2070,2070,2070,2070,2070,2208,2208,2366,2548,2760,3011,3312,3312,3312,2208,2208,2208,2208,2208,2208,2208,2208,2208
663,663,676,676,676,676,676,676,676,676,676,676,676,676,676,676,676,690,690,690,690,690,690,690,690,690,690,690,690,705,705,705,705,705,705,705,705,705,705,720,720,720,720,720,720,720,720,720,720,720,720,736,736,736,736,736,736,736,736,736,736,736,736,736,736,736,736,736,736,736,753,753,753,753,753,753,753,753,753,753,753,753,753,753,771,771,771,771,771,771,771,771,771,771,771,771,771,771,771,771,771,771,771,771,771,789,789,789,789,789,789,789,789,789,789,789,789,789,789,808,808,808,808,808,808,808,808,808,808,808,808,808,828,828,828,828,828,828,828,828,828,828,828,828,828,828,828,850,850,850,850,850,850,850,850,850,850,850,850,850,850,850,850,850,850,872,872,872,872,872,872,872,872,872,872,872,872,872,872,896,896,896,896,896,896,896,896,896,896,896,896,896,896,896,920,920,896,850,850,850,850,850,872,850,850,872,872,872,872,872,872,872,872,872,1183,0,0,0,0,0,0,0,0,0,0,0,0,0,0,0,0,0,0,0,0,0,0,0,1183,1183,0,1183,1183,0,0,0,0,0,1183,1183,1183,1183,1183,1183,0,0,0,0,0,0,0,0,0,0,0,1380,1380,1183,1183,1183,1183,1183,1183,1183,1183,1183,1183,1183,1183,1183,1183,1183,1183,1183,1183,1183,1183,1183,1183,1183,1183,1183,1183,1183,1183,1183,1183,1183,1183,1183,1183,1183,1183,1183,1183,1183,1183,1227,1227,1227,1227,1380,1380,1380,1104,828,828,828,828,828,828,828,828,828,828,828,828,828,828,828,808,828,808,808,0,0,0,0,1069,789,789,789,789,789,789,789,789,789,789,771,771,771,771,771,771,789,789,789,789,789,736,736,736,736,736,736,771,0,789,789,789,789,789,789,771,771,771,771,753,753,753,753,753,753,753,753,753,753,753,753,753,753,753,753,753,1840,0,0,0,0,789,789,789,789,789,789,789,771,771,771,771,771,789,789,789,0,0,2070,789,789,789,789,789,789,808,0,0,0,0,0,0,0,0,0,404,404,390,390,390,460,460,1949,0,0,0,0,0,0,0,0,0,0,0,0,0,0,0,0,0,0,0,0,3680,3680,0,0,0,0,0,0,0,0,0,0,0,0,0,0,0,0,0,0,0,0,0,0,4140,4732,4732,4732,5520,6624,8280,16560,33119,0,0,0,0,4140,3011,3011,0,0,0,0,0,0,0,0,0,0,0,0,3680,3680,2070,1949,2070,2760,0,0,0,0,0,2760,2760,2548,2548,2548,2548,2548,2548,2548,2760,2548,2548,2548,2548,2548,2760,2760,2760,2760,2760,2760,2760,2760,2548,2366,2366,2366,2548,2548,2548,2548,2548,2548,2548,2548,2366,2366,2366,2366,2366,2366,2366,2548,2548,2548,2366,2366,2366,2366,2366,2366,2366,2366,2366,2366,2366,2366,2366,2366,2366,2366,2366,2366,2366,2366,2366,2366,2366,2366,2366,2366,2366,2366,2208,2208,2208,2208,2208,2208,2208,2208,2208,2208,2208,2208,2070,2208,2070,2070,2070,2070,2070,2208,2208,2070,2208,2208,2208,2208,2366,2548,2760,3011,3312,3312,3312,2208,2208,2208,2208,2208,2208,2208,2208,2208
663,676,676,676,676,676,676,676,676,676,676,676,676,676,676,676,676,690,690,690,690,690,690,690,690,690,690,690,690,705,705,705,705,705,705,705,705,705,705,720,720,720,720,720,720,720,720,720,720,720,720,736,736,736,736,736,736,736,736,736,736,736,736,736,736,736,736,736,753,753,753,753,753,753,753,753,753,753,753,753,753,771,771,771,771,771,771,771,771,771,771,771,771,771,771,771,771,771,771,771,771,771,771,771,771,789,789,789,789,789,789,789,789,789,789,789,789,789,789,808,808,808,808,808,808,808,808,808,808,808,808,808,828,828,828,828,828,828,828,828,828,828,828,828,828,828,828,850,850,850,850,850,850,850,850,850,850,850,850,850,850,850,850,850,850,872,872,872,872,872,872,872,872,872,872,872,872,872,872,896,896,896,896,896,896,896,896,896,896,896,896,896,920,920,0,0,0,896,872,872,872,872,872,872,872,0,0,0,0,0,0,0,0,0,0,0,0,0,0,0,0,0,0,0,0,0,0,0,0,0,0,0,0,0,0,0,0,1183,1183,1183,0,1183,0,0,0,1183,1183,1183,1183,1183,1183,1183,1183,0,0,0,0,0,0,0,0,0,1183,1183,1183,1183,1183,1183,1143,1143,1143,1143,1143,1143,1183,1183,1183,1183,1183,1143,1143,1143,1143,1143,1143,1143,1143,1143,1143,1143,1143,1143,1143,1183,1183,1183,1183,1183,1183,1183,1183,1183,1183,1183,1183,1183,1183,1227,1227,1227,1325,1380,0,1380,1183,828,828,828,828,828,828,828,828,828,828,828,828,1069,828,828,808,828,808,808,0,0,0,0,789,789,789,789,789,789,789,789,789,789,789,771,771,771,771,771,771,771,789,0,0,0,808,736,736,736,808,808,808,789,789,771,789,789,789,789,771,771,771,753,753,753,753,753,753,753,753,753,753,753,753,753,753,753,753,753,753,753,0,0,0,0,789,789,789,789,789,789,789,789,789,789,789,789,789,789,789,828,0,789,789,789,789,789,789,789,808,808,0,0,0,0,0,0,0,0,404,404,390,390,404,460,460,0,0,0,0,0,0,0,0,0,0,0,0,0,0,0,0,0,0,0,0,1004,0,0,0,0,0,0,0,0,0,0,0,0,0,0,0,0,0,0,0,0,0,0,0,0,4140,4732,4732,5520,5520,6624,8280,16560,33119,0,0,0,0,4140,3011,3011,0,0,0,0,0,0,0,0,0,3680,0,0,0,0,0,1949,2070,2548,0,0,0,0,0,2760,2548,2548,2548,2548,2548,2548,2548,2548,2760,2548,2548,2548,2760,2760,2760,2760,2760,2760,2760,2760,2548,2548,2548,2366,2366,2366,2548,2548,2548,2548,2548,2548,2548,2548,2366,2366,2366,2366,2366,2366,2366,2548,2548,2548,2366,2366,2366,2366,2366,2366,2366,2366,2366,0,0,2366,2366,2366,2366,2366,2366,2366,2366,2366,2366,2366,2366,2366,2366,2366,2366,2366,2208,2208,2208,2208,2208,2208,2208,2208,2208,2208,2208,2208,2070,2208,2070,2070,2070,2208,2208,2208,2208,2208,2208,2208,2208,2208,2366,2548,2760,3011,3312,3312,3312,2208,2208,2208,2208,2208,2208,2208,2208,2208
676,676,676,676,676,676,676,676,676,676,676,676,676,676,676,676,690,690,690,690,690,690,690,690,690,690,690,690,690,705,705,705,705,705,705,705,705,705,705,705,720,720,720,720,720,720,720,720,720,720,720,720,736,736,736,736,736,736,736,736,736,736,736,736,736,736,736,736,736,753,753,753,753,753,753,753,753,753,753,753,753,771,771,771,771,771,771,771,771,771,771,771,771,771,771,771,771,771,771,771,771,771,771,771,771,789,789,789,789,789,789,789,789,789,789,789,789,789,808,808,808,808,808,808,808,808,808,808,808,808,808,808,828,828,828,828,828,828,828,828,828,828,828,828,828,828,828,850,850,850,850,850,850,850,850,850,850,850,850,850,850,850,850,850,872,872,872,872,872,872,872,872,872,872,872,872,872,872,872,896,896,896,896,896,896,896,896,896,896,896,896,896,896,896,896,920,920,896,896,872,872,872,896,896,896,0,0,0,0,0,0,896,0,920,920,0,0,896,896,896,896,896,0,0,0,0,0,0,0,0,0,0,0,0,0,0,0,0,1143,0,0,0,0,0,0,0,0,0,0,0,0,0,0,0,0,0,0,0,0,0,0,0,1143,1143,1143,1143,1143,1380,1143,1143,1143,1143,1143,1143,1143,1380,1380,1183,1380,1380,1143,1143,1143,1143,1143,1143,1143,1143,1143,1143,1143,1143,1143,1183,1183,1183,1183,1183,1183,1183,1183,1183,1183,1183,1183,1227,1227,1227,1227,1227,1380,1380,0,1380,1104,828,828,828,828,828,828,828,828,828,828,828,828,1069,828,828,808,1744,808,808,0,0,0,789,789,789,789,789,789,789,789,789,789,771,771,771,771,771,771,771,771,789,0,0,0,0,0,808,808,808,808,808,771,771,771,771,771,789,771,771,771,771,771,753,753,753,753,753,753,753,753,753,753,753,753,753,753,753,753,753,753,753,0,0,0,789,789,789,789,789,789,789,789,789,789,789,789,789,789,789,789,789,808,789,789,789,789,789,789,789,808,808,808,0,0,0,0,0,0,0,0,404,390,390,460,460,1949,0,0,0,0,0,0,0,0,0,920,771,0,0,0,0,0,0,0,0,0,0,0,0,0,0,0,0,0,0,0,0,0,0,0,0,0,0,0,0,0,0,0,0,0,0,4140,4140,4732,5520,5520,6624,8280,16560,33119,0,0,0,0,4140,3011,3011,3011,0,0,0,0,0,0,0,0,0,0,0,0,0,0,1949,2548,3011,0,0,0,0,0,0,2548,2548,2548,2548,2548,2548,2548,2760,0,0,2548,3011,2760,2760,2760,2760,2760,2760,2760,2760,2760,2760,2548,2548,2548,2548,2548,2548,2548,2548,2548,2548,2548,2548,2366,2366,2366,2366,2366,2366,2366,2548,2548,2548,2366,2366,2366,2366,2366,2366,2548,2366,2548,0,0,2366,2366,2366,2366,2366,2366,2366,2366,2366,2366,2366,2366,2366,2366,2366,2366,2070,2070,2070,2208,2208,2208,2208,2208,2208,2208,2208,2208,2208,2070,2208,2070,2070,2070,2208,2208,2208,2208,2208,2208,2208,2208,2208,2366,2548,2760,3011,3312,3312,3312,2208,2208,2208,2208,2208,2208,2208,2208,2208
676,676,676,676,676,676,676,676,676,676,676,676,676,676,676,676,690,690,690,690,690,690,690,690,690,690,690,690,690,705,705,705,705,705,705,705,705,705,705,705,720,720,720,720,720,720,720,720,720,720,720,720,736,736,736,720,736,736,736,736,736,736,736,736,736,736,736,736,736,736,753,753,753,753,753,753,753,753,753,753,753,771,771,771,771,771,771,771,771,771,771,771,771,771,771,771,771,771,771,771,771,771,771,771,789,789,789,789,789,789,789,789,789,789,789,789,789,789,808,808,808,808,808,808,808,808,808,808,808,808,808,808,808,808,828,828,828,828,828,828,828,828,828,828,828,828,828,850,850,850,850,850,850,850,850,850,850,850,850,850,850,850,872,872,872,872,872,872,872,872,872,872,872,872,872,872,872,872,872,896,896,896,896,896,896,896,896,896,896,896,896,896,896,896,896,896,920,896,896,896,896,896,896,896,0,0,0,0,0,0,0,0,0,0,920,920,896,896,896,896,896,896,896,896,0,0,0,0,0,0,0,0,0,0,0,0,0,0,0,0,0,0,0,0,0,0,0,0,0,0,0,0,0,0,0,0,0,0,0,0,0,0,0,0,1380,1380,1380,1380,1380,1143,1143,1143,1380,1183,1380,0,1380,1380,0,1440,1380,1143,1143,1143,1143,1143,1183,1143,1143,1183,1183,1143,1143,1183,1183,1183,1183,1183,1183,1183,1183,1183,1183,1183,1183,1227,1227,1227,1227,1227,1227,1325,1380,1227,1104,828,828,828,828,828,828,828,828,828,828,828,828,1069,1656,828,1656,1744,808,808,0,0,808,789,789,789,789,789,789,789,789,789,771,771,771,771,771,771,771,771,771,0,0,0,0,0,0,828,850,828,828,808,771,771,771,771,771,789,789,771,771,771,771,771,771,771,771,771,771,771,753,753,753,753,753,753,753,753,753,753,753,753,0,0,0,789,789,789,789,789,789,789,789,789,789,789,789,789,789,789,789,789,789,789,789,789,789,789,789,808,808,808,808,0,0,0,0,0,0,0,404,390,386,390,404,460,460,0,0,0,0,0,0,0,0,0,920,771,0,1183,1183,0,0,0,0,0,0,0,0,0,0,0,0,1227,0,0,0,0,0,0,0,0,0,0,0,0,0,0,0,0,0,3680,4140,4140,4732,5520,5520,6624,8280,16560,33119,0,0,0,0,4140,3011,3011,3011,0,0,0,0,0,0,0,0,0,0,0,0,0,0,0,2548,3011,0,0,0,0,0,0,2548,2548,2548,2548,2548,2548,2548,2548,0,0,2548,0,2760,2760,2760,2760,2760,2760,3011,0,0,2760,2548,2548,2548,2548,2548,2548,2548,2548,2548,2548,2548,2548,2366,2366,2366,2366,2366,2366,2366,2548,2548,2548,2366,2366,2366,2366,2366,2366,2548,2548,2548,0,0,2548,2366,2366,2366,2366,2366,2366,2366,2366,2366,2366,2366,2366,2366,0,2366,2366,2208,2208,2208,2208,2208,2208,2208,2208,2208,2208,2208,2208,2070,2208,2070,2070,2070,2208,2208,2208,2208,2208,2208,2208,2208,2366,2366,2548,2760,3011,3312,3312,3312,2208,2208,2208,2208,2208,2208,2208,2208,2208
